# 3D point list with one line of data per point:
#   POINT3D_ID, X, Y, Z, R, G, B, ERROR, TRACK[] as (IMAGE_ID, POINT2D_IDX)
# Number of points: 395, mean track length: 4.0286839145106859
879 0.93870275053911856 3.011813131491996 2.5370680463418331 214 228 231 1.6443158260080146 23 1037 24 1049 25 1018
880 -4.9934784879487379 5.9295235444154413 0.85497596624941197 152 155 156 0.16467254899707062 23 36 24 8 3 49
882 -4.3182433401157923 7.2613316994948329 -0.41930931016192469 16 11 8 0.26912973853806127 23 447 24 33 25 3
1250 0.52372884281892085 3.9114680363042709 1.9610940391197036 211 190 35 0.21278892709373737 16 709 15 841 14 763 11 895 12 866 10 1016 9 984 8 883
883 -5.4449359187076665 4.1913149144524713 4.4275780576087644 109 100 91 0.42384626504910478 21 74 24 38 25 62
1767 2.8846009353516879 4.2798400891679185 4.2055026331920908 158 150 139 0.46253965729995672 8 554 7 632 6 553
884 -3.4175278568631158 7.38204395402171 -0.38081596977500881 164 157 147 0.28579794557584398 23 458 24 51 26 27
1761 4.0585665041098666 3.2228624610883165 5.7026656475683657 138 130 119 0.94841069367375819 9 223 7 322 6 583 8 202
886 -2.0686226020986944 7.2821277257302981 -0.33999014549069806 128 121 111 0.082821625328250145 23 185 24 99 25 76
887 -2.0686226020986944 7.2821277257302981 -0.33999014549069806 128 121 111 0.082821625328250145 23 186 24 100 25 77
888 -2.0039954967463296 7.2642474790613933 -0.31788436597327596 161 154 144 0.65697776192396906 23 193 24 103 25 81
890 0.80474734647034141 1.6744874639574823 2.3781764423115681 174 183 185 0.24075283156344854 23 146 24 197 25 258 27 165 3 126
1258 -0.2889102444595088 3.0862187957583758 2.4857394894600287 154 164 155 0.55677419663726369 16 846 15 902 14 762
891 0.85493470817140971 1.7649423488749638 2.3188298096071684 158 169 165 0.53672938044368157 23 166 24 218 26 288
1775 3.7290526545812228 3.1253309855599167 5.9343973356267874 138 134 122 0.31973689445186876 8 234 7 804 6 735
892 0.81951584890264528 2.2049783643193646 2.1137694708383541 212 221 226 0.18233517011709019 23 207 24 232 25 260
1769 -0.46698646195095017 4.4174608562698268 2.143228098140423 80 72 70 0.44063899840207915 8 735 9 715 20 463 7 643
894 0.99799165047850169 4.1123151488171565 2.5714623473253289 197 206 213 0.19823418702310405 20 423 23 379 24 383
895 -5.5120275678550721 5.8777139646989829 1.6914616845127108 210 220 222 0.34452069322486267 23 635 24 434 25 443 26 539 22 56 27 763 3 763
1558 -0.18548973333539823 2.7637918389833169 3.064630132467693 176 182 181 0.24829986980687621 11 306 10 359 9 669 8 590
897 -4.2272041526358439 7.8181278506368521 -1.0496765645892741 141 133 122 0.1301976743695536 23 448 24 447 27 522 4 571
1043 -1.5899470732553787 3.2690019392551672 3.7753140054079148 171 155 135 0.36180519998441707 16 355 25 205 26 324 27 341 3 390 15 396 4 340
898 -3.2829186211206967 7.6055443414525348 -0.70634064447723555 150 144 132 0.35871618910214986 23 465 24 467 25 30 26 532 27 528
899 -2.7854480827578856 7.4257014554650951 -0.54855703186223848 138 130 119 0.50527009152088276 23 473 24 472 27 533
901 -2.8965177143265928 6.8186393203943778 0.45011863211723324 139 135 126 0.3465792666231548 22 642 23 471 24 478 25 470 26 558 4 673
902 -2.1184029564427829 7.1926519474919699 -0.17324812682731933 136 130 118 0.35639410201070865 23 671 24 490 25 479 26 75 27 64
1556 0.88869128713199097 2.5482223652226739 4.8902561839357874 192 189 69 0.75948939647510672 11 281 10 342 9 400
903 -2.1184029564427829 7.1926519474919699 -0.17324812682731933 136 130 118 0.35639410201070865 23 672 24 491 25 480 26 74 27 65
1051 1.1063885558548101 2.7100145318292461 2.6411753476698756 134 145 151 0.19495551334159469 24 606 26 399 27 336
906 0.6500104016523518 1.5159231839276324 2.4273202966076561 169 180 176 0.10275496972759297 23 115 24 517 25 538
907 -1.6077280129009119 2.5840500130714341 4.8483712205161327 139 122 94 0.1797052656895391 23 470 24 523 25 569 26 733
909 0.84916133654027903 1.7265903207113622 2.3361020546274149 115 126 122 0.45638376865793262 22 144 24 543 25 264 26 283
910 0.84916133654027903 1.7265903207113622 2.3361020546274149 115 126 122 0.45638376865793262 22 145 24 544 25 265 26 284
1564 -0.71929256908429007 3.1955446001678909 2.4308311028086553 115 127 127 0.056666551689354895 11 378 10 433 9 415
911 0.86301706996522709 1.8104201685493566 2.2659568980413507 168 179 175 0.06868419288383372 22 152 24 545 26 272
1638 -0.18431425565823162 1.933045905033923 2.5295279750141426 87 87 75 0.46574246089974358 11 1013 10 1122 9 1105
913 -1.106013933089643 2.8947894259308629 4.4481643024526258 118 23 5 0.18839480257923166 23 496 24 560 26 852
1123 -5.2656438437783546 5.8462841050480243 1.0407673916456166 141 145 144 0.86782441615637396 24 5 27 753 3 498 26 5
915 0.78451412311565383 1.8053406908228844 2.5593603239016369 150 156 154 0.3746953477115747 23 191 24 565 25 288 26 329 27 621 3 196
917 -0.28866129974622157 6.7165971208124908 0.56320928745300158 122 113 104 0.37172468052974772 23 709 24 584 25 528 26 600
918 0.81831920803715508 2.6409629491678808 2.8959851983414828 178 188 187 0.26715143461455848 23 551 24 596 26 724 25 338
1636 -0.013956497854126851 1.5089253243967009 2.3055808317662096 215 225 227 0.4877244377446166 11 983 10 1109 9 1072 8 978 7 1040 6 917
919 -5.7286584286702613 4.1506572019367463 3.565671718802399 158 159 163 0.16677444494332017 23 16 24 660 25 18
1646 -0.43114323130278387 2.8088277174033527 3.0145714248626891 126 125 116 0.70699200150842634 12 946 9 1173
921 -5.308632452177882 4.3388716061110308 4.1469038555949957 106 100 86 0.55991585376026243 23 425 24 671 26 791
1131 -1.8232500660521325 2.9713409723843496 4.1302832665771794 159 144 113 0.52219571258400377 25 696 26 920 27 905 3 980
922 -1.8986613980330458 6.8075724445950234 0.29412361991282454 135 128 118 0.18151447883107411 22 668 24 696 26 569
923 0.69656712094697748 1.5529792787202925 2.409319112664011 168 178 180 0.32595456994771771 23 472 24 704 25 700 26 813
925 -0.51187938630912633 4.91368005713601 1.5162390089080877 169 152 123 0.42461699218141757 22 676 24 717 25 684
1031 0.11950125346302382 2.6721777904927455 3.5808909604453438 124 102 78 2.6329161627267101 24 1045 25 1012
926 -1.0114273233693987 2.8836537432993778 4.4600687873533662 118 26 2 0.27907189075624378 23 506 24 724 25 723 26 856 3 932
927 0.022680268489906018 6.8862284720888614 0.24920155477033623 159 152 142 0.26765831405607632 23 720 24 731 25 532 26 591
1075 -6.0737822265100538 5.2884624974708476 1.8545659989109056 100 108 111 1.5772674983483197 23 911 26 1008 27 982
930 0.9958298933702886 2.9914121054530503 2.9617022935823138 158 161 152 0.16890375088789228 23 713 24 756 25 730 26 859 27 825
931 -1.888524259400137 7.112553417501589 -0.043902604397689615 139 133 121 0.49999194719392853 23 777 24 791 25 765 26 887
1745 0.33586456787650004 3.0115666650212174 3.6992207547194234 185 195 194 1.530692535821677 9 1186 8 1075 7 1125 5 954
934 0.77576099475675953 2.6868973176568178 3.1480493580006166 160 170 171 0.27720219979360311 23 699 24 834 25 809
1588 0.080469932298453256 1.5030647765002996 2.0457268181283523 183 193 193 0.5374113984564054 11 445 10 744 9 527
935 0.89420458211406462 2.8343664764291185 3.1481674194798828 170 176 174 0.2325899484808763 23 794 24 837 25 812 26 861 27 912
1083 0.62039105970973307 1.5714206025142348 2.505323966028254 144 155 151 0.73438927666043363 25 953 26 1080 27 1060 3 1082 4 845 5 840 6 748
938 -0.53664012758505797 2.7817398639982023 4.620914596515294 127 16 9 0.11485340352127171 23 783 24 876 25 860 26 1001
1242 4.3165539517566653 4.6042515271399145 3.5803861580476894 160 156 145 0.32384879692965113 16 835 15 807 14 740
939 -4.5190573418211732 3.3886694538803339 4.9991634157620259 128 124 112 1.1223668636152861 23 746 24 904 25 879
1753 -0.64051580976899414 4.2598011674192504 2.3478410123023816 73 64 69 1.1233744452450325 19 1034 1 700 17 936 8 1017 11 1025 9 1121
942 0.28787543630894341 1.4478484226656587 1.9813028720280856 193 204 200 0.50387797845992111 23 892 24 947 25 877
1596 -0.14791081326366462 2.5625389416141866 2.9031802125764199 157 166 165 0.12514134434654245 11 728 10 817 9 808 8 723
943 -5.2340750640927407 3.7244875736068224 4.7379843369697943 88 83 77 1.7380961815520386 22 946 24 975 25 967
1542 -0.19039695087069228 1.7253141039140238 2.1152585488874212 206 217 221 0.6274798756300215 11 110 10 124 9 99
945 -4.2662405956468312 6.895271059843938 -0.7584036569909387 110 106 95 0.94064432779691387 24 999 3 1093 27 1017
946 -0.75989903881269905 4.7077696878599316 1.3645949272912921 175 155 128 0.9320165568268971 23 980 24 1004 25 969
947 -0.31699981912033037 5.8411074885986416 0.83938510790110754 163 156 146 0.24059860637235153 23 1020 26 1074
949 1.0860964841117113 4.2675119961700929 2.3541691119817023 218 229 233 0.74063771800708267 23 1005 24 1039 25 1000
1540 -0.16931064707797022 1.8218174990584428 2.0154392030198287 164 173 178 0.39834147795498115 11 111 10 119 9 87
951 -1.3257407019478102 4.2482850939424317 2.2478749878277031 114 99 66 0.24417719885583597 19 799 20 817 24 128 13 512 21 278 7 808 6 699
1550 -0.23134399323013688 2.0264540010883416 2.1178046379392392 156 158 162 0.31023041027235371 12 186 14 396 10 203
953 -5.4490019829107847 5.8797322176113447 1.6303068899687361 168 174 177 0.56250717164402986 22 59 25 6 26 31
954 -5.1176047503003854 6.112472819220037 1.2942583548351498 73 80 88 0.58111076909701065 24 16 25 8 27 52
1035 -1.6440246774402203 7.5644588508299639 -0.75748431366436153 165 158 143 0.19796973672160009 24 501 26 66 27 39
955 -3.3732523529066554 7.618014512731297 -0.73096062013662455 123 117 105 0.1458598761183216 24 46 25 27 26 14
957 -2.1456435635755939 7.033766564781919 0.0036161420957110391 135 131 120 0.48229818086108406 23 173 25 87 26 559 4 403
958 -2.3313166532382454 6.9494201722581126 0.33480051205593553 136 130 118 0.025300104550862148 24 101 26 87
1622 -0.15839167784380334 4.0958327558560788 1.8331942437767963 178 153 26 1.3454997558154225 11 905 10 1028 9 647 7 600 12 615
961 -0.54892537441374645 4.8820187299515521 1.5071316302464277 57 46 28 0.84864895777834481 21 651 25 168 26 174
1107 -3.4233066950685651 5.1953867333121755 2.8017152390163824 122 113 98 0.10631700946290623 26 586 27 595 3 805
962 -0.33292961619837463 6.5818383599159693 0.66421065642965249 140 133 123 0.27592839037130407 22 708 24 266 25 189
963 0.0050611344413371371 6.7949570158507226 0.34803860042831414 161 154 144 0.30340128707318409 23 580 25 200 26 169
965 0.79953405015282419 1.6455758909864977 2.2612204137922349 167 177 178 0.42613289202421678 24 172 25 224 26 227 27 580
966 0.73080231701011034 1.5714388303779927 2.3773978955528907 198 210 210 0.36530034612686219 24 160 25 226 27 587 26 246 3 530 4 418
1620 -0.14326076440724397 1.662775947434453 2.4378995672654296 175 185 187 0.1504388945546874 11 876 10 1006 9 1033 8 877
1317 0.50958107745627146 3.9381851419988387 1.8955200785722481 220 200 49 0.47724557707563059 15 349 14 485 10 272 9 624 8 184
967 0.84888733089031188 1.7799641112519415 2.1651180762881301 184 193 199 0.20297662557456916 24 185 25 228 26 221
1630 -0.20912226123007768 2.542177534252585 2.7705663769611277 122 127 123 0.40360319900141611 11 951 10 1082 9 1045 9 1085
969 -1.4290095620026251 2.9171119219117045 4.3847166096919779 201 196 96 0.42808194588819404 24 175 25 286 26 715 27 464
1115 -1.5298537574531883 3.3173375703448968 3.7190549032725535 99 79 55 0.32207380579032474 25 541 26 681 27 684 3 841
970 -1.5914971437916432 2.6389377925376851 4.7778109334505929 136 116 90 0.57066157158172548 23 122 25 294 26 845 27 735
971 -1.5914971437916432 2.6389377925376851 4.7778109334505929 136 116 90 0.57066157158172548 23 121 25 295 26 846 27 736
973 0.89420172517558405 2.7901746787741102 3.0001212890549267 175 185 187 0.13539756784431448 23 284 25 362 27 716
974 1.1937220615942969 4.0999326202221287 2.6084060295693283 213 222 224 0.30100044624736494 24 406 25 400 26 437
1628 6.1782627009248401 3.1070684070487866 5.4682331846678949 151 148 137 0.37987100948289232 11 864 10 1057 9 1027 8 931
1325 0.27783485879509362 2.7041946673757771 4.7052467383901924 126 85 23 0.19423426583044301 15 530 14 594 12 722
975 0.26627398184155388 2.7529175752235853 4.6447358759178163 181 176 85 0.1949091698199622 24 363 25 434 9 725 10 428
1702 -0.015662087570716202 2.7748447907938374 4.6113430820400154 99 20 8 0.44010127989794334 16 495 15 707 14 604 12 733 11 839 10 967 9 1017 21 736 22 651 24 835 25 815
977 -2.2936278569296982 7.3913997108123324 -0.24583265292742551 167 160 150 0.48780448325842601 23 500 25 476 26 70
1187 -1.5196352979508381 3.4830305108241166 3.4360896759529616 131 116 85 0.27049123273532716 16 712 26 821 3 916 4 716
978 -3.9920519070000702 4.441830571950101 4.0230841107302293 132 124 113 0.35318363985433376 22 74 25 495 26 616 27 629
979 0.74229414815252936 1.5673070078313351 2.245164369568585 183 194 194 0.7263225404507434 23 468 25 529 26 200 24 149 27 120
981 -3.1981204860507919 3.6822173405713854 5.0798625269805733 163 159 148 0.1174534751626285 24 117 25 533 26 695
982 0.28006229917784919 6.9939037258676509 0.15632254901868914 137 130 120 0.20139034515072432 24 737 25 544 3 535
1700 -0.26069172788259848 2.0547045205396239 2.4237185481280159 128 132 124 0.55731549871135488 11 883 10 927 9 900 12 519 11 513 8 803 7 757
1333 -0.15048855601096461 1.6394546306993081 2.1734522847386049 212 223 227 0.33533471193968234 15 872 14 731 12 844 11 874 10 1068 9 1029 8 871 7 926
983 -1.7976581639356042 2.8665427039536864 4.3543264044271872 120 105 73 0.30070167527976865 24 509 25 546 26 700 3 718 15 363
1710 -0.39500121604162935 2.5596800935771022 2.6347623836136669 200 211 205 0.23033078341392951 10 336 8 261 7 243
985 -1.6537517260438832 2.9595462834569042 4.2575721880438726 97 82 60 0.12306598649197414 24 516 25 550 26 703
1195 0.43959151268488605 1.49402749901751 2.556416197186572 162 167 170 0.70155594502241403 27 1077 3 1096 4 863
987 -1.17390343661035 2.7722930891870599 4.6414539353349804 124 27 3 0.24381484296546546 24 558 25 582 26 741 27 842
989 0.89379451693800105 2.7648134812896097 2.9281077479647868 163 173 175 0.34160938031076649 24 600 25 595 26 420
990 1.1632700368947757 2.7619390968948236 2.6167878577859258 138 148 157 0.8976588982131769 23 564 24 749 25 596 26 723 3 908 27 960
1708 -0.10214707855613306 2.3820551095118678 2.7243258167342912 113 115 108 0.069096246531445304 10 627 8 231
1341 -1.914014956803761 2.5419092303159028 4.9133481745153187 130 127 91 0.074041747356501403 15 905 16 771 14 771
991 1.3254957660611926 4.2341346042126702 2.3774135169543404 240 236 237 0.35930736679734882 2 356 25 608 3 647 15 576 16 575 11 255
1654 -0.24676526235070084 1.8196297035483107 2.1369123360939035 192 197 203 0.16205288889659417 10 167 9 137 8 106
993 -4.2311975225011169 7.2057413750395805 -0.1715040334123713 16 15 10 0.30061579053997151 23 645 25 641 26 772 3 753 4 575
1139 -1.3876612301709532 3.687012029285746 3.2644508798952612 166 152 117 0.79180478682411737 26 961 27 999 3 972
994 -4.9496390498844587 6.2099075035358586 1.3297012317165819 207 211 210 0.31955762954980993 23 52 25 644 27 863
995 0.13602434994281484 1.459694410696212 1.9425699934013476 135 140 137 1.1233855046765882 24 460 25 664 26 97
997 -1.5895496975756325 2.9051652082671948 4.3649377798331077 133 117 102 0.11340438632043233 24 521 25 710 26 830
1039 0.72105715487905275 1.548716281565726 2.3105967524013615 190 200 202 0.4599273586081532 25 197 26 214 27 129
998 -1.6611030077386979 2.5796455666367839 4.8335325682907841 172 153 123 0.10610840569771111 24 703 25 715 26 936
1652 0.7177808497535243 3.9259385954571773 2.2951824120154822 232 216 70 0.098268737976108661 11 1078 10 1226
999 -1.2520605124955089 2.9104299081425724 4.4291106713400348 193 184 67 0.041460574323853791 23 486 25 718
1662 -0.4805224123330995 3.4899004456728107 2.9824972164898784 129 119 130 0.67454127653568052 10 454 9 458 8 629 6 559 5 323
1001 0.97351523514291582 2.9283569541338363 2.955347910348356 108 113 116 0.2036525921432458 24 838 25 728 26 857
1147 1.041035350353301 2.4339492372455171 3.001786274632964 162 172 171 0.040956054356469582 26 1132 27 1117
1002 0.66849009394519843 2.9101018301722723 3.5167779935762775 145 150 153 0.08016095664559153 24 751 25 733
1003 0.72012759766021628 3.4280593251014211 3.6607601182198986 109 93 77 0.85481973200057926 23 721 25 739 26 944 27 924 3 928
1005 0.80655176080328383 1.7332160200402842 2.1608097570136198 160 169 176 0.35572895906467455 24 810 25 786 26 805
1006 -1.6600308032516697 2.6331787443509236 4.7810465567084055 175 160 129 0.16978110570426796 24 808 25 795 27 971
1660 -0.61405906505538277 2.8471671372675273 2.6679104439368873 114 118 117 0.23254525878584995 10 408 9 396 8 329
1091 1.5096891800840604 7.6721496872794583 -0.92222679893850545 158 154 143 0.19166828196596988 26 599 27 90 3 70
1010 -1.5035758186601815 2.8627268071294605 4.4838196319261945 209 193 82 0.16783485694248973 24 811 25 845 26 989 27 1009 3 1036
1011 -1.394049106802004 2.9717044389414267 4.3690042541327463 158 145 103 0.51316946530737417 24 871 25 846 26 987 27 968 3 986
1013 1.2168214137045468 6.6048494353040406 0.63544528739835349 139 132 124 0.40558709968600265 24 932 25 852 26 915 27 879
1014 0.86821851169381925 3.0748184932661524 3.3561283798687964 145 143 131 0.56331807668954392 24 892 25 866 26 1032 27 1011 3 1030
1604 -0.67017785143349629 4.8043602203530291 1.5434761755215991 78 67 56 0.42710141887216563 11 769 10 852 9 708 8 588 1 618 7 235 6 174
1015 1.198818632357838 3.7204016919862464 3.243853338861074 118 97 68 1.4048772525116615 23 877 25 867 26 1039 27 1046 4 804
1614 0.099525365706137181 3.3315874575972404 3.8203510840299657 126 106 79 0.50022205193442637 11 838 10 955 9 1006 8 907 7 983
1017 -0.96885186364712828 2.7924173325385953 4.548411594278809 190 188 41 0.89410317971987019 23 898 24 921 25 890 26 1060
1099 0.9360923819098792 3.0492542394421052 3.1680071074421825 115 115 103 0.30052031802298268 26 463 27 456
1018 -3.0744697110208081 7.9339343023746531 -1.2714770174057732 127 119 108 0.27908940840877816 24 945 25 917 26 1009 27 980 4 820
1019 0.98077379036334944 3.5713856485303936 3.3843371446379771 115 93 70 0.6419317377457906 23 940 25 934 26 1064 27 1012 26 1038 3 1070
1021 -3.2445761710750718 7.6501820963092051 -0.80204770010762783 133 127 115 0.15904209455819038 23 977 24 1002 25 943 26 1068
1022 0.58975962417943295 1.4688776602782181 2.2783674454195282 231 243 243 0.25069344195796328 24 987 25 951 26 1075 27 1055
1612 -0.18395407398320324 2.4949739485456202 2.7214730623798342 163 172 174 0.17197819533365458 11 818 10 937 9 909 8 812 7 869 6 782
1023 0.25731419643307979 4.3076083946181063 1.8001124298183702 128 99 88 0.58478888280071473 24 1009 25 956 26 1052
1024 -1.6869866477364279 2.8267868709418096 4.3854600368612706 83 72 52 0.82018932071204742 24 1003 25 980 26 1115 27 1100
1025 -1.3863949496776971 2.8427870788128322 4.4308377841663642 193 189 56 0.20763270241701209 24 1007 25 996 26 1118 27 1101
1029 0.091429135840923548 1.4856400158421592 1.9864944644653457 0 0 0 0.43218854409739182 1 8 22 48
1033 -5.4576155201695178 5.9555491905306956 1.5358445685385305 163 167 167 0.069786754018273695 25 4 26 28 27 547 3 515
1037 0.18921007756659292 7.3696561201226949 -0.32220437306546745 126 117 108 0.084582385870828294 25 525 26 141
1041 0.68458923065935673 1.5742421733031173 2.461255765834657 189 199 201 0.090599247983069384 24 165 26 274 27 166
1042 -3.6460050374387354 3.7394537644150816 4.6711144215051554 153 146 128 0.041115721063884461 25 143 26 282
1045 -1.5846720670308143 3.214387027932831 3.8624024505045655 80 63 47 0.38525526223482093 16 344 25 222 26 338 27 692 3 691 15 626 4 655
1047 -1.681459505363385 2.9062190949566782 4.2767848341403791 168 150 126 0.1346621842251946 25 253 26 355 27 432
1048 -1.7167330482166128 2.828262616556636 4.4424543326955002 82 69 52 0.086340494502724921 25 263 26 363 27 725 3 724
1049 2.2157749688644182 4.7468966847971608 1.4807819318355997 81 72 55 1.0456954521612625 25 817 26 394 27 286
1050 2.2157749688644182 4.7468966847971608 1.4807819318355997 81 72 55 1.0456954521612625 25 816 26 395 27 285
1053 -0.82348686935363913 2.8271039992828264 4.5566851136513087 94 35 0 0.25860300683620591 25 328 26 468 12 629 14 242 11 634
1055 0.35535637734486286 1.4179149402368527 2.0666664329150923 218 224 222 0.42064631529382451 25 493 26 582 27 72
1056 0.29400659161646941 6.9960372239477273 0.080708691220628404 132 123 114 0.20721839927882138 24 736 25 543 26 596
1057 0.55784603948593869 1.5868166751903896 2.5847795387324615 155 167 169 0.38337907719093989 25 244 26 660 27 609 3 786 5 436
1058 -1.2629065852538204 2.7845732943643804 4.6294883875395128 133 18 3 0.11198454281335586 24 546 26 738 27 841
1063 -3.0959284578445874 8.2762095176745571 -1.5640367700601234 130 122 110 0.18827859580035278 25 648 26 769 27 752
1064 -5.1035438820439483 6.6094612395368442 0.78180126145043272 66 65 61 0.18648570776308052 24 773 26 778 27 757 3 756
1065 -5.0960776586440906 6.099256177261096 1.2367339229864043 164 173 180 0.57929145772885815 24 14 26 780 27 761 3 509
1066 1.5340669253568688 7.1623346950807409 -0.20874308824492038 134 127 119 0.14452688132386235 25 720 26 806 3 537
1071 -1.5500781168273583 2.9333217885006215 4.3892286837814876 185 174 95 0.1730321789297459 24 809 26 925 27 913
1072 -1.6117119960453477 3.0120900244944768 4.2090140963587848 172 151 120 0.38649547845180204 24 805 26 981 3 1032 15 911 14 815
1073 -1.8187915792538123 2.8169342667876385 4.4208680490463141 100 93 64 0.07094738903654349 25 841 26 982
1074 0.86533593344515991 2.6981352011644102 2.9447576059891274 142 152 154 0.13190676629256104 25 895 26 992 27 964
1079 0.8562636569011316 2.5880745372058094 2.8636037281152804 160 170 172 0.47284670308236737 25 894 26 1057 27 1068
1081 1.0817279224001262 3.6688207490786846 3.1897567572955934 107 82 60 0.40328881527845312 25 933 26 1063 27 1044 3 1028
1082 0.56574223957534198 1.4732956052496844 2.4558477346964218 200 210 211 0.64517515979122098 25 952 26 1079 27 1076 3 1081 4 844
1087 -1.5604751477916377 3.1095760276097257 4.1474371754878518 173 154 123 0.65771251164808009 25 993 26 1114 27 1109 3 1123
1088 -0.53923841858015609 2.7841437114606102 4.6234983673862287 115 34 14 0.16948593563420136 17 494 16 687 26 1000 22 747 23 782 24 875 25 861 15 826 12 879 11 913
1089 -4.3232293881534343 7.6737783577672571 -0.82303700200600571 125 117 106 0.20733493232300512 24 446 27 11 4 16
1090 -2.038792672040195 7.4325486053602505 -0.35262719866600617 134 126 115 0.13461492206145981 26 73 27 59
1094 0.58119716000846189 1.6224408360262892 2.6206632827747538 142 154 152 0.21287095136971798 25 255 27 206 4 117
1095 -1.5314504563936513 3.2513709884936235 3.8218744224706862 171 152 120 0.23118737617488344 26 340 27 353 4 652 16 347
1096 0.81500238111841405 2.6902692881824293 3.0742407725881842 174 184 183 0.062290432949957196 25 353 27 417 3 370
1097 -1.7720789964783263 2.9010194094053956 4.3105497263222325 112 87 57 0.10560666694540392 26 354 27 429 3 712
1098 -1.7032750076640166 2.9024693548714984 4.3068872408327623 168 151 123 0.38428530770944902 26 357 27 435 3 716
1101 -1.7739142428614858 8.6189438290322453 -2.3981090116291472 155 152 133 0.52154029449800099 26 771 27 519 3 480
1103 1.535120729758024 7.1575980149517333 -0.21197193950752152 134 127 117 0.38965696476532802 26 807 27 574 3 538
1109 0.26188534042016576 1.5759369290593672 2.6455298147933242 139 148 145 0.44269355617795447 26 230 27 600 3 559 4 454 5 449
1833 0.34749003986414112 1.402100779626372 2.3932110089622221 188 199 192 0.31002891409513367 7 925 6 877 5 838
1112 -1.4181852221036273 3.660210220170824 3.1984225972260094 105 85 60 0.43586190064810398 16 604 27 635 3 825 4 638 6 810 5 756
1117 1.1538726036151856 2.7821582693093849 2.6522106152632756 161 172 177 0.19062999196705332 26 405 27 687 3 301
1120 -1.5533509652760542 2.9030010085357532 4.3880043288585622 173 157 89 0.51632332039236306 16 295 27 728 3 861
1121 1.1595647807561478 3.5644268451117007 3.0441276161597672 65 16 38 0.067860481240165221 26 755 27 729 3 694
1122 -1.4809121661743494 8.7144824442901392 -2.6729825486090601 129 121 108 0.85591948106805571 25 755 27 751 3 739
1125 -4.9558006129859811 5.9839516117359706 1.5159498768002417 178 185 184 0.3119528780421929 26 550 27 767 3 762
1127 -4.2638285979840695 7.0142957594594728 -0.56427811231655745 99 96 87 0.77582143384199542 24 772 27 850 3 935 4 572
1128 0.66176573933326965 1.5002282537647476 2.4255761300140852 145 156 147 0.8020341865827737 26 811 27 870 3 531
1129 0.58518748424335698 1.5332714767474815 2.5363087435996929 142 151 146 0.18051260215090342 25 702 27 877 3 882 4 680
1130 -1.6059182323647823 3.473323379718213 3.4295764481333655 167 146 104 0.49509926830122453 26 914 27 892 3 975
1133 0.75325318131923735 1.5808908033286579 2.2439644320448675 179 190 186 0.17030630932995602 26 957 27 937 3 948
1135 -1.6027070990797934 3.5520222601617015 3.2789395082042856 105 103 64 0.27108115043893338 26 958 27 951 3 969 4 801
1136 -1.496350748627238 3.361305613278772 3.6528976415201679 168 149 119 0.21636780428487645 16 794 25 787 27 958 4 807
1137 1.261410748589086 3.7019332040087991 3.0959019722002505 64 45 47 0.2652296955283705 26 999 27 969 3 979
1138 -5.6386203587175423 5.7198888575734061 1.6494817569376332 146 153 146 0.88513638240837944 26 1010 27 985 3 1003
1141 -1.5039718561869744 3.3483280244079352 3.8853901486389208 168 149 116 0.46975528833823871 26 1085 27 1087 3 1108
1143 -1.6363683113797534 3.297111606846832 3.7849786831871723 152 139 112 0.24970341346010383 26 1102 27 1098 3 1115
1144 0.65429930195523012 2.373907401623649 2.9398771764035412 162 174 170 0.41195099464556656 26 1116 27 1107 3 1121
1145 -0.82397841886653655 3.3327542594842225 4.0131122493802831 164 145 103 1.2125335222203144 26 1131 27 1118 3 1138
1146 0.97709998555858846 2.8225523576766554 2.4210044090327423 217 231 242 1.2922214367018277 27 1125 3 1132
1149 0.46479114882374128 1.4408135354802312 2.5094537522254892 187 193 189 0.17830949678608732 27 145 3 104
1151 -3.1603908023826128 6.1999491585109201 1.5106544050835282 126 116 104 0.70597590090649709 25 97 3 134 4 469
1809 0.059154887758269173 2.4228459947785734 3.0223629883081236 172 176 175 0.23602041871781321 7 256 6 230 5 526
1152 0.6839378848798584 1.6427293676978925 2.5425834987522036 176 184 187 0.12152095883477047 27 196 3 150 4 98
1155 1.2451818685507097 4.1756896997499737 2.4683247227195828 161 174 185 0.010853689523051564 24 407 3 334
1813 0.36737738863456498 1.4590260834490942 1.9807886574591973 208 216 219 0.10569597691718313 7 9 6 426 5 398
1156 -1.6233758144460131 3.2870797705643913 3.715766993028029 98 78 51 0.28597685654659494 26 320 3 382 15 630
1157 -1.5490253421187514 3.2322124943446031 3.8585863121177244 168 152 127 0.59177745444115482 27 361 3 404 4 556
1158 -1.6865129961109486 2.9693462745440042 4.2290277241366301 162 142 115 0.33340670557948482 16 311 24 143 3 430 15 371 14 522
1817 0.22878863215584228 1.4616778567274475 1.9416876729013426 205 213 218 0.34584811877734117 7 709 6 616 5 584
1160 0.66668813672279559 1.5188633502371018 2.3186715317634081 200 211 203 0.25522495041910731 27 573 3 521 4 32
1163 0.60429266246554159 1.6659471799194252 2.6352535205013026 128 136 138 0.0073102611025550168 27 616 3 588
1821 3.0748498977479963 4.4227658401729126 3.9820380357900724 126 118 107 0.25285293135563952 7 774 6 693 5 755
1164 0.68735772889725122 1.8553988513708257 2.6846468373067784 142 143 135 0.3909555509054316 27 626 3 604 4 474
1165 2.584138079843401 6.6268541065464373 0.67524263953642716 135 128 118 0.88682032592794324 26 710 27 804 3 605 4 116
1166 -1.520258478673989 3.6784488037997387 3.1057483047542451 168 154 123 0.65227108199945871 16 607 27 249 3 637 4 635 5 666 6 730
1168 1.3247645399636996 4.2337158937366146 2.3787898555924154 244 246 241 0.2253665655986912 25 607 3 646 15 577 16 576
1171 -1.6156991961768301 3.222401929252269 3.8406052499427252 166 148 123 0.39817061169009099 27 349 3 687 15 394 4 654
1172 -1.584646817231947 3.2143935623596165 3.8631772812253056 86 67 43 0.47791228163981458 16 345 3 692 15 627 4 656 25 221
1173 -1.709072786346562 2.9880587816400896 4.1862302709371058 101 80 49 0.42022249115718319 16 318 27 412 3 706 14 525
1174 -1.573550969786834 2.8782821970550039 4.4198356454182237 183 152 120 0.35512539958211836 27 460 3 726 15 351
1176 -5.6198592533641953 5.7891638572415376 1.654300811694184 129 133 132 0.95279069741122824 24 661 27 55 3 758
1179 0.46861086097502164 1.9099588372550564 2.8346044977721512 118 123 115 0.16076772704348832 27 638 3 811 4 613
1180 0.64612047230909964 2.9316309889338195 3.5468600361074047 120 125 121 0.26561770678833685 26 757 3 853 4 328
1181 0.53659320855484571 1.5355276996508345 2.5499404905973728 176 184 186 0.65991173677958237 27 876 3 883 4 682 6 49 5 695
1182 0.67157977375791433 1.5835468406964619 2.5170220529697551 174 181 184 0.68362267956638911 26 916 27 878 3 886 4 681
1841 -1.6081086039760475 3.5797113291666229 3.2565051558628006 73 80 40 0.13688908544212358 3 316 4 291
1184 0.40985610830916375 1.8967728627181293 2.8356442152810524 145 150 143 0.1869035609701831 27 805 3 902 4 702
1189 1.2438641300627551 3.636409982385608 3.1896819936931924 111 91 64 1.6291805937687063 27 918 3 924 5 310
1849 -1.5073238538236762 3.8274013009150809 2.8331058662270157 84 96 58 0.19694716386308472 3 966 4 763 5 856
1192 0.31239630725790979 1.422240700071403 2.1094821703402187 196 205 199 0.44662511373754149 27 986 3 996 4 782 5 834
1197 1.1222538233436588 3.4335194431274019 2.947337676490672 99 47 70 1.6141609512583293 27 1127 3 1136 4 900
1793 5.5030158306449071 4.3249163533363086 4.1740045748344219 139 131 115 0.82380045626352982 8 1030 7 1100 6 978
1200 -0.15140738210015844 1.7961998917029747 2.0387771189104975 165 175 177 0.36294520504405353 16 104 15 55 14 363 12 473 11 473 10 556 9 557 8 72
1203 -1.0492377286200123 1.6377612070398258 8.2881112684817406 126 117 106 0.47914786516476271 17 158 15 174 14 461
1797 0.59814759862676758 2.6571369994443521 4.759658365560071 189 186 63 1.2112013833777424 12 968 11 1037 10 1180 9 1143 8 1055 7 1107 13 927 21 1045 22 984 23 985
1204 -0.19886718247683488 3.0778117358674519 2.4211640207119718 153 163 155 0.36629344616479204 16 265 15 276 14 473 12 345 11 295 10 326
1205 -0.19829099828750507 3.1126585000814613 2.4344591756776723 183 190 183 0.266752588494164 16 277 15 279 14 225 12 346 11 300 10 331
1801 6.4918682563326735 4.1312351216648926 3.5271644947916823 111 113 110 1.2694287038091914 8 27 6 80
1208 -1.6248874262359607 3.1965650446234783 3.8796493876354319 156 133 117 0.1808095232467174 3 403 15 393 4 351
1211 -0.10789925988787907 1.6526380017819546 2.0893276113375472 183 193 195 0.40721010936108404 16 94 15 457 11 464 10 542 8 61 7 48
1805 4.1762832879073386 4.5979239917356898 3.6903297164102584 126 118 105 0.31171499566380767 7 162 6 195 5 552
1212 0.039673060807205368 1.8687128847341847 1.8700836594401156 191 201 203 0.12327872743396634 16 102 15 464 12 462
1213 -0.2241867690771753 1.7622587442653863 2.1601604189955936 151 158 164 0.1890439580100069 16 107 15 473 14 369 12 484
1214 -0.036596806827694235 1.9314950445259174 1.873096823755465 180 188 190 0.97980472249950135 16 119 15 476 14 368 12 471
1219 -0.20170503565515294 2.7949726752046065 4.5635690972087106 117 19 5 0.32566792332199485 17 220 15 549
1220 -0.55510239168305864 2.7464463549931097 2.5532062973022716 203 217 217 0.28373306285646971 16 235 15 557 14 612 12 732
1221 -0.55510239168305864 2.7464463549931097 2.5532062973022716 203 217 217 0.28373306285646971 16 236 15 558 14 611 12 731
1222 -0.046399828530342448 3.1051195709763886 2.3286426543574374 182 192 191 0.46797077452221819 16 255 17 269 15 562 14 610
1227 0.94483616201067822 1.1645356656030321 9.1310520397764705 118 110 99 0.41450925371493053 16 451 15 669
1228 0.54035057128649222 1.0751521668749857 9.2771728750648723 133 129 118 0.24237953792788278 16 650 15 672 14 563
1229 1.1017123321991986 1.6252548340814639 8.2128544090005562 156 148 137 0.22335636763883737 16 460 15 676 14 665 12 811
1230 0.99060416608196311 1.6141564951323595 8.2004893295896686 124 116 105 0.61666875517238351 16 655 15 678 12 812
1235 3.2942218578733216 4.7430375195001977 3.2569040094371235 124 118 106 0.22068207550297567 16 776 15 708 14 583
1236 -2.1082799592198782 3.0059618063785152 5.7939475357606645 149 142 134 1.0239548402822212 16 312 17 511 15 743
1237 -0.57882909300949592 3.8375766743986022 2.9909539128897435 143 121 101 1.318737627328237 16 367 17 561 15 752 14 318
1238 6.2749456358060582 3.2390018238255815 5.8130629329882888 145 136 127 0.58905856836281156 16 742 15 778 9 878
1243 -0.023672743420315785 2.0776238577814619 7.6183857671340149 169 167 155 0.12392385922899671 16 672 15 808 14 694 12 874
1244 0.73065162161051211 3.0185553066377326 2.4123222498538377 207 195 198 0.072556707745822763 16 834 15 816 14 686
1245 0.80694173572869476 3.2470606177026027 2.374715847654659 190 190 178 0.55267246038951234 17 787 15 818 14 693
1246 -0.53738876556906845 2.784420909893599 4.6245250854502924 127 33 10 0.20753750645609687 16 688 15 825 14 760 12 878 11 912
1248 0.20806594591893535 3.6497395796601317 2.5939875450483303 36 12 8 2.0645065412717241 17 807 15 838 14 483 12 354
1251 -1.8817998716202651 2.6764389793486525 4.671984082932263 135 129 95 0.30879085358549202 16 699 15 842 14 772
1252 -1.8817998716202651 2.6764389793486525 4.671984082932263 135 129 95 0.30879085358549202 16 698 15 843 14 773
1253 2.3888246630077505 0.045951605699295406 10.709308983117687 126 118 105 0.55458071002957288 16 806 15 862 14 727
1254 6.3580728717132686 3.3016506093708129 5.3093965730854613 149 148 143 0.43111168623821 16 818 15 867 10 989 11 863 9 962 8 868
1256 -0.24381947812777133 1.9962021315201284 2.1684621174619232 98 98 96 0.16038731343909141 16 747 15 883 14 792
1259 -2.0439494440126076 3.0462796458099759 5.803535220941991 29 22 14 0.2390676348769922 16 850 15 912 14 776
1260 -0.8568038228590682 2.8114357807062906 4.6001110551980675 152 44 35 0.22512797977510665 16 838 15 941 14 838 12 954
1261 -0.85133164599143984 2.8140630598637384 4.6162884886435256 152 44 35 0.26898725991110572 16 839 15 942
1262 -1.9922177741790401 2.4669611788855526 5.1250216119391023 168 151 121 0.17094849700546866 16 842 15 946 14 844
1857 0.67538768955973394 2.2227873554673865 2.7424254313349143 89 90 78 1.5212364271333598 4 903 5 941
1264 0.90825079641303286 2.0894487841884977 6.3355430154883186 135 127 116 1.8982748427073539 16 821 15 981
1265 -0.13459439480164292 2.1605121401773046 2.1246812381677045 106 112 110 0.19798291856842321 16 921 15 983 14 859
1267 2.0735688887701791 0.44824910982732341 9.9209279215232655 163 156 146 0.38092757938333338 16 978 15 1025 14 875
1861 0.41630254811984291 1.4468205958797535 2.4860143148960452 194 201 194 0.3035352605027915 4 421 6 33 5 421
1268 1.5661292903339818 0.91317827067481638 8.9600738501088681 134 127 111 0.66946514321567496 16 979 15 1026 14 878
1269 1.5661292903339818 0.91317827067481638 8.9600738501088681 134 127 111 0.66946514321567496 16 980 15 1027 14 879
1270 -0.19797888521592591 2.7210456779739332 4.6261446771524968 131 26 12 0.92273264426366763 16 953 15 1035 12 1006 11 1050
1865 -1.5007314022927636 3.8121386853706429 2.8357897353710015 101 113 82 0.2729961289916108 3 965 4 764 6 901 5 855
1272 -0.53229737407112521 3.5350325261152231 2.2517587372905785 31 14 4 1.0907028619390995 15 1052 14 913 12 1009 11 1049
1275 -1.9284787427683141 2.1321011942305117 5.0319327124658209 162 158 149 1.0834085582679907 16 1052 15 1080
1276 -1.6479987612110998 2.826241273324797 4.4687783936172636 174 152 127 0.46020317252819881 19 743 20 769 18 832 19 856 17 786 16 775 15 908 24 806 25 843 26 986 27 1008 3 1035 14 810
1277 -1.6525433321678298 2.9570028968331088 4.257963133865406 91 71 49 0.29063524449908312 1 496 19 240 20 577 18 560 17 273 16 557 15 607 24 515 25 551 26 702 27 827 14 640
1278 -1.1112477306144282 2.892980412038249 4.4478227803246382 112 27 7 0.91457731636426076 23 495 24 561 26 851 3 866 15 730 19 229 18 555 17 252 16 259
1280 -0.69891788442121572 2.7831051816796553 4.6357178570851509 133 42 24 0.80485359651461186 17 780 16 836 15 939 22 626 23 779 24 874 25 855 26 1035 14 803 12 951
1282 -0.17027929545475853 1.8182086120950112 2.0365120840952899 196 205 210 0.31215521789290634 15 63 14 39 12 483 11 113 10 122 9 93
1716 -0.64252526079898864 4.4391686403103066 2.0977308430816408 170 160 145 0.15430539376831645 10 706 8 357 7 291
1285 -0.1260745730737266 2.4042048664672229 2.0947703472957002 172 177 181 0.068315025393065956 15 168 14 129 12 233
1287 -0.17300709156556232 2.7025775022888854 2.4229221174063889 187 199 199 0.331243370232497 15 217 14 175 12 292
1288 -0.43638994325297781 2.6582582346421137 2.469914318172981 214 225 231 0.39067142582824133 15 232 14 192 12 332
1720 -0.25447912844744836 1.9614441957467861 2.4095961475486147 136 133 126 0.14442958722895871 10 606 8 544 7 150
1289 1.159680677676264 4.0929950091129221 2.565299188863182 61 85 98 0.15254868649259848 15 291 14 200 12 286
1290 1.1857626253763889 4.2137427504281133 2.3832124070976333 135 150 164 0.19806319407579645 15 306 14 212 12 289
1724 0.14078209333587488 1.5118535008238045 2.5432676234247933 151 161 162 0.34547605473204257 9 558 8 674 7 727 5 603
1293 -0.64917174047280957 3.0035048861066058 2.4149608387806061 176 191 198 0.31539822367407061 15 308 14 250 11 590
1295 -0.53716661886132944 3.6505309993264201 2.8513146506589786 80 56 54 0.32099429262119117 15 385 14 296 12 423 11 394
1296 -1.8376787070253606 3.1420918411455023 5.8828796145618636 150 145 141 0.051407498048067504 15 368 14 325
1664 7.068307175523854 2.9168115910296106 6.0630225567450164 14 12 7 0.31181438670188277 11 21 15 435 9 539 8 55
1297 6.4976815918157822 4.1637285529558827 4.3256369425114185 161 158 143 0.066447504192187243 15 461 14 345
1298 -0.19783541978113439 1.7116969749198918 2.1648725002535931 202 213 215 0.30762080167121569 15 52 14 360 12 478 10 135 11 117
1668 -0.16184743640977159 1.6614237544607224 2.3890114420041493 152 157 160 0.35401090931451762 10 576 11 137 9 583 8 509 7 557 6 71
1301 -0.19313342628292418 1.9437858462958175 2.0531284487748547 134 144 146 0.16997648371177262 15 90 14 378 12 151
1303 1.1317997414545768 1.5645947586661255 8.1163068631673649 132 125 115 0.38075985199429913 15 76 16 456 14 384 12 544
1304 -0.26727267612992744 1.9410262142758545 2.23107868273966 119 121 116 0.21182244842475914 15 104 14 391 12 182 11 194 10 218 9 181
1672 -0.54193337351494297 3.5338360806274993 2.9195214511068075 80 70 65 0.23127041314006824 10 702 9 722 8 631
1305 -0.031720602140490266 2.2547377457199826 2.0069730614675474 177 187 188 0.2223706173135942 15 136 14 403 12 504
1306 1.1155223600861601 2.6029871874691701 4.8344438513029839 126 27 2 0.35847313106149686 15 503 14 406 12 708 11 725 10 815 9 815 8 830 7 903
1676 -0.26414851043272303 1.784995149935924 2.2211039807901134 124 127 132 0.24627822236313926 10 786 9 773 8 508
1309 0.81403528643539524 2.9602734115610998 2.4711829507766381 140 146 134 0.47450551608824121 15 521 16 493 14 415
1311 -0.11973764514881782 2.3867655735483781 2.0748312506775712 126 134 137 0.26815835041239688 15 165 14 419 12 524 11 509
1312 -0.22804785097988217 2.2988638212777097 2.201766830317434 127 137 138 0.31512947324418755 15 162 14 421 12 534 11 235 10 609 9 612
1616 6.4309090805339437 2.329939285247661 6.3100105475257848 5 6 2 0.2106925928747643 11 920 10 988 9 874
1314 0.26034793574508341 2.8815586940032412 3.8322305620792498 137 125 108 0.43899380064162763 15 207 14 455 12 315 11 308
1319 -0.12765756380548982 1.6727798619438472 2.0909764231381778 216 225 230 0.33935486683045979 16 445 14 546 12 465 15 47 11 663
1320 -0.22304805921049461 1.7227586742291903 2.1837228134322566 152 164 162 0.37681550356630905 15 469 14 547 12 671 11 679 8 500
1624 -0.62207877346184348 4.7645233943491601 1.5713743754815361 88 75 69 0.27420257542507248 11 967 10 1041 9 999 8 823 7 775 6 675 5 622
1321 -0.18337769237289944 2.2963557826686403 2.1417564243435909 133 144 148 0.23368412316331544 15 512 14 576 12 526 11 706 10 801 9 784
1322 -0.18334011869932848 2.296294884128014 2.1416917513868396 133 144 148 0.2114757343841398 15 511 14 577 12 527 11 705 10 800 9 785 8 527
1327 -0.21810326223810017 1.7792771157031051 2.1197880049516828 196 207 211 0.14635800185201986 15 784 14 659 10 907
1328 4.2984773813262436 4.7034410585621655 3.6301971728501172 128 124 113 0.23596318056044618 15 809 14 666 12 669
1696 -0.25526396929312656 1.8377831857044933 2.3912288532942707 91 89 74 0.41197284254701622 10 1172 9 1132 8 1033
1329 -0.26170678268840603 1.972888187646884 2.2651081615328144 77 78 72 0.39759567307001448 15 794 14 669 12 794 11 799 10 913
1330 0.42082643430589739 2.69265305883629 4.7394619620138929 135 92 23 0.47739349450379037 15 523 14 692 12 717 11 827 10 1034 9 940 8 910
1335 -0.21585764068791299 2.2834314581439292 2.1731586776369416 169 179 181 0.25624315609706133 15 804 14 749 12 858 11 806 10 920 9 894
1336 -0.22884380917991767 2.3769532975033263 2.2062309387081434 116 115 111 0.2041317253213821 15 889 14 751 12 859
1704 6.6775917802371731 6.7810526566995408 0.26253641536715167 137 135 123 0.83281559757556245 11 431 8 0 7 493
1337 3.0495917823929886 4.8876685992997642 3.0641687741951134 129 122 112 0.9089091112433193 16 899 14 753 12 799
1338 -0.23931018984951524 2.7306061324652515 2.434566168239142 192 203 205 0.64700320328073835 15 897 14 755 12 816
1343 1.2748737541953448 4.2190591365375498 2.3674687584318903 207 222 241 0.091378555434091305 15 904 14 798 12 862
1344 1.0975856452804884 4.1738577279790361 2.1959498472568355 150 132 94 1.9844267982492638 15 731 14 800 12 941 11 993 10 1124 9 1107
1776 0.11671923085178323 1.5443472631314445 2.5273576665538733 150 156 152 0.35054771300306098 8 676 7 848 6 826 5 784
1345 -0.98354953530885048 2.8257946738902264 4.5356543557060292 187 184 69 0.42022635051160812 15 944 14 806 12 955
1346 2.8342114556554474 1.4515910062196311 8.4629995514709542 136 132 121 0.35317128274986259 15 972 14 820 12 962
1780 -0.12036219796997924 1.8586183128627445 2.6119900898299266 150 155 149 0.2038547512003526 8 800 7 936 6 834
1349 -2.1234159211147938 2.6221781687046457 5.6324948952073823 157 152 148 0.63261482809162572 15 992 14 850
1351 0.40925956511798522 3.9222483337287928 2.3160731757777833 201 168 35 0.74076550013086595 16 934 14 867 12 945 11 954
1352 0.44829364822026418 3.9996464118879138 1.8873637403526717 230 213 65 0.67913749259100009 15 1010 14 883 12 970 11 994 10 1149 9 1081 8 986
1784 1.3916777879693003 3.2610150033698462 3.761411322257513 163 142 113 1.3134275273004483 8 809 7 957 6 852
1353 0.58519270470488494 2.047571118452912 1.811791457745501 125 119 107 1.1734843363872145 15 1029 14 890 12 995
1354 -0.17778573950089654 2.2696311782771992 2.201511015088597 164 173 177 1.207074228493197 15 1047 14 895 12 1000 11 1034 10 1175 9 1135
1788 -1.5025082490712585 3.858416574302058 2.8315089053222691 106 117 85 0.66268876164937052 18 863 7 1030
1357 -0.45622873417054133 3.7504486058482853 2.9560980737770124 37 12 12 1.760110534586308 15 1067 14 914 12 1022 11 1080
1359 -1.1709144120568702 2.7878031002242323 4.6871378569319511 109 34 28 0.20524039333334523 15 296 14 259
1569 -0.69126583839035405 4.2212911000607445 2.4251464827195353 78 66 54 0.25040734793223846 11 425 10 476 8 401
1360 5.9206658902873199 2.7163519518797821 6.5476869711409851 135 130 124 0.30428756545963509 15 33 12 23 9 124 8 127
1573 -0.065282305630374182 1.5898129344706593 2.4500930656336117 148 158 160 0.3222794523890391 11 475 10 565 9 571 8 505
1364 -0.21686256920325236 1.679397310453612 2.2054420784809663 179 188 193 0.28201868357548149 14 33 12 114 10 143
1732 -0.41589902040668508 3.5083183894186512 3.0186948203569712 125 104 101 0.48321387698571905 9 843 8 840 7 975
1365 -0.20839760780593156 1.9801195654622219 2.0867730222877707 114 124 125 0.40164307036643104 14 80 12 169 10 186 9 152 11 164
1577 -0.16805912156109179 1.7603817691446944 2.4802921277844252 134 144 146 0.44983052943036589 11 494 10 592 8 695 7 576
1368 1.3800469527529973 2.5386911917928043 4.945748797358779 212 211 100 0.21133300297651791 15 121 12 217 11 529 10 633
1740 -1.0793108538147997 2.3880473388217673 2.8152642737515028 67 47 41 2.5155003793655779 18 1001 8 1040
1373 -0.13605414260991466 2.674822828976541 2.3832665871341443 128 139 133 0.44531570360502704 14 167 12 274 11 266
1376 0.47203778406893454 3.964994908705012 1.8676518041523678 254 239 87 0.4344573233337975 16 588 12 330 10 277 8 186
1680 7.0739689265683774 2.4673860712406803 5.6612958347556042 104 107 112 0.45897673133554823 10 487 9 861 8 779
1377 0.29042248139133081 4.0452154801943809 2.1034184095426975 194 157 23 0.90607421299815916 14 261 11 304 10 304 9 636 8 221
1378 0.26423897833797255 4.0240630510850002 2.1937744405194834 97 53 0 0.47463007411327762 14 263 12 367 11 824 10 638
1684 -0.083980602085210382 1.5352752717278166 2.2317302686515936 217 227 229 0.41167887932650499 11 659 9 877 8 782 7 839 6 629
1381 -0.20158780622816622 1.7289060244155974 2.1392758696603691 161 170 175 0.5571426647052915 14 36 12 480 11 476 10 773 9 567 8 95 7 535
1383 -0.24173991328685013 1.8023258094624566 2.1875260179122771 115 124 129 0.43238032516154257 15 69 12 494 11 153 10 173
1688 -0.64815351116058151 2.8535553700877481 2.5552639118882854 184 195 199 0.33586037302022614 10 1032 9 997 8 892 7 952 6 786
1385 -0.13428158058572578 2.217102824157696 2.1083300921377344 177 187 189 0.37157048837515222 14 109 12 511 11 700 9 594
1386 1.4278295218658013 2.5904724787245645 4.8456392584535459 98 41 5 0.12283808785151266 14 395 12 517 11 716 10 811 9 809
1692 6.7111921486507793 4.0832176826735651 3.7399251008833918 82 78 68 1.5762555084745422 10 1099 9 1066 8 1004 7 1065 6 958
1389 -0.10261386109933823 2.648560454965406 2.3858341968625152 115 125 117 0.29052036623878763 15 201 12 549
1391 1.1254296459339708 2.2809940540104261 7.3836412398266713 131 124 114 0.3221557000555762 14 114 12 557 11 580
1392 1.1254296459339708 2.2809940540104261 7.3836412398266713 131 124 114 0.3221557000555762 14 115 12 558 11 579
1760 4.0372415253092235 3.2789028453155988 5.6525617640129715 161 153 142 0.21622193204596293 10 159 19 283 7 316
1393 0.58927442202964209 2.8813506627884236 4.4884924751242394 155 142 125 0.79644186134159423 14 444 15 190 12 565 8 756
1394 0.58195256835346731 2.8766349752287184 4.4846188158711602 155 142 125 0.65133208233160966 14 445 12 566 8 757
1764 -0.043932339987183343 1.509900426114573 2.3659037399190819 167 173 171 0.2590914084932161 8 494 7 540 6 47 5 46
1397 -0.11336949829047063 2.6653012995136316 4.8083683209824999 186 169 119 0.31282692456338962 14 180 12 588 9 741
1399 -0.64623403837169413 3.0350614598104499 2.3958125730667712 206 223 230 0.13189418972553149 14 254 12 606 11 357
1400 -0.68684313049684664 2.9922827933519045 2.4801556482483282 150 168 172 0.28405991148677157 15 311 12 609 11 597 10 678
1768 4.1998415488384193 3.3772789124115445 5.4426680321100465 139 133 121 0.16320829507367707 8 546 7 637 6 719
1401 -0.14316883712617667 3.9089651146028417 2.3994181032508686 174 140 49 0.53537307152213065 14 285 16 366 12 613
1402 -0.82079608495908918 2.8301716286304432 4.561227698595351 99 46 2 0.34453774014382671 14 241 12 628 11 633
1772 -0.57485154354853907 4.8077721662933808 1.5011118037758782 154 144 132 0.38487928795629167 8 819 7 768 6 668
1405 1.3319097263565161 2.5263046982273201 4.9717005753196313 196 181 94 1.2456326906295279 14 565 12 700 10 936 8 900
