# 3D point list with one line of data per point:
#   POINT3D_ID, X, Y, Z, R, G, B, ERROR, TRACK[] as (IMAGE_ID, POINT2D_IDX)
# Number of points: 377, mean track length: 3.8144748284858441
11795 -1.1786258692478133 1.0985887449517284 1.6956160846529325 116 60 94 0.1393766824456262 5 4234 6 4460 7 3934
1523 -0.51708633081748556 0.87239420745545981 0.28651569959793527 133 65 98 0.12867497437717837 11 2011 2 2444 1 2225 10 2469 9 2361
11796 -1.1358714644831329 1.1166014895986827 1.7889377641986719 167 144 162 0.31273503374621875 5 4253 6 4470 7 3939 8 3835
1527 -0.079161830278178788 0.87455203960369698 0.27886241049481131 180 173 165 0.1334817520793502 11 2003 12 375 2 2451 1 2214
11800 -1.2812363669417592 1.4369896367171557 1.4256633571892929 159 144 136 0.37760755444864563 5 4271 6 4516 7 4581
1528 -0.079461800259735871 0.87414273752752081 0.28078879360349324 180 173 165 0.15451611145640473 11 2004 2 2452 1 2215 10 353
11801 -1.2833361250957775 1.5195160834240833 1.3198981476776763 171 180 143 0.27753099770108253 5 4261 6 4517 7 4980 8 4979
1529 -0.65760537731033597 0.87664362739216883 0.32765828354449988 154 140 137 0.25058076069663776 11 3086 2 2454 1 2231 7 2456 6 375 8 2252
11802 -1.2833361250957775 1.5195160834240833 1.3198981476776763 171 180 143 0.27753099770108253 5 4262 6 4518 7 4981 8 4980
1530 -0.55940329954564527 0.89273524392869297 0.286561507834109 101 63 88 0.17081251736083861 12 347 2 2455 1 3379
11803 -1.2794397626446319 1.4414956400637102 1.4581862892538671 163 179 168 0.31889014913482394 5 4276 6 4528 7 4047 8 3967
1531 -0.5962598020062625 0.90379393565714516 0.29248777845057944 58 30 45 0.093681707193173799 11 2024 2 2459 1 2235 10 2498 7 436 8 2246
11804 -1.2466629377455278 1.4498997740030315 1.6318505032300992 93 36 55 0.34829996421014076 5 4316 6 4550 7 4061 8 3978
1532 -0.60092406325048697 0.92030509405976446 0.28751655774169094 64 51 57 0.31250164032983074 11 2032 2 2465 1 2249 10 2516 9 2410
11805 -1.2678672405734503 1.6408646695111895 1.3452394369915393 69 28 35 0.63005261068751506 5 2864 6 4552 7 4609 8 4589
1533 0.52243099080659172 0.86350968232529057 0.63761727838719851 198 143 178 0.35148987991757863 11 2018 12 3368 2 2467 1 475
1534 0.57145027521176583 0.85848365141850658 0.70607156364382528 162 78 114 0.58282967671400776 11 2019 12 3378 2 2470 1 478
1535 -0.3644361206339839 0.94518961240510913 0.22857177902691297 55 30 35 0.21502019102296846 11 2037 2 2473 1 2253 10 2493 9 2372
1536 -0.36555130884578679 0.94493361590472935 0.23139777948367912 55 30 35 0.17715884806295598 12 436 2 2474 1 2254
1537 -0.7652692312134719 0.93567974865437931 0.35411292587559379 141 161 158 0.33976832272498847 11 3785 2 2475 9 4137 8 4275
1538 0.54261746999532545 0.88653301828309594 0.64359965458193491 141 80 120 0.18808638288502358 11 2023 12 2313 2 2480 1 497 13 3490 14 3538 15 3746 16 2579 17 2154
1539 0.53088863243172568 0.88828037902398049 0.62872462565901988 175 120 159 0.3923550268071444 11 480 12 3383 2 2481 13 3487 14 3532 15 3738 17 2145 16 2571
1540 -0.58729330381356493 0.97004247140570876 0.26215091644134558 72 37 59 0.12655482015326086 11 2050 2 2484 1 2285 10 3590 9 2433 8 2276
1541 -0.4610208586303271 0.97737498094452302 0.2302555314115356 162 113 140 0.27778458435966696 11 2049 12 463 2 2488 1 2281 10 3581 9 3443
1542 0.50891389599930748 0.9112953166623875 0.58761348179161432 188 165 181 0.13554988243462934 11 486 12 2322 2 2489 1 506 13 2325 14 2353 15 2509 17 405 16 450
11815 -0.56778311346541144 2.5908681233335549 2.0083873955985143 76 48 32 0.41331563431118012 6 4634 4 4632
1543 -0.74503909256549905 0.96978292115813547 0.32986721085796017 137 137 142 0.17052494864283552 11 3123 2 2490 7 3637
1544 -0.61985648327661325 0.9803505177804579 0.2701588954315669 162 122 140 0.23228625225621152 11 2061 2 2493 8 2285 7 497
1545 -0.60937522864705973 0.98869660185303321 0.26390285205716191 91 51 67 0.16053203944761785 11 2070 2 2499 1 2309 8 522
11818 -0.67327645178736517 0.30286715451821639 1.1885402089841399 0 0 0 0.25269266075150071 3 4735 20 3926
1546 -0.81371143781192323 0.98418264681937251 0.36472069404217128 185 190 160 0.30400832674891698 11 2086 2 2502 1 3443 6 2375 7 3656
1547 0.6446358963473392 0.91096833447353953 0.7860872377560284 82 59 81 0.16965065944414998 12 3414 2 2511 14 4235 13 4207 15 4509 17 4159 18 2509 11 510
1548 0.52340688887257336 0.94101743317923936 0.58326911884470656 117 88 114 0.37858172121756728 11 2043 2 2513 13 3516 12 2359
1549 0.2879125099992898 0.97349509196218953 0.37133345933948142 141 85 120 0.35745577093453967 11 2047 2 2517 1 2258
11822 -0.82880597766926445 0.45373637548183743 0.89303442728985971 93 73 91 0.12499570345626478 5 4442 6 4685 7 4747 8 4213
1550 -0.025454368922655658 0.99965160467240632 0.23398845118933995 57 58 62 0.22854547811239109 12 541 2 2519 1 578 13 334
1551 0.53444838996914912 0.94363316524540453 0.59794225328316564 191 161 187 0.22505652855863886 11 2046 12 3402 2 2520 1 531 13 3519 14 3560 15 3763 16 2600 17 442
1552 -0.67162618889300985 1.0135805400437568 0.28116265279555491 155 89 121 0.37966976249372775 11 2108 2 2524 1 2365 10 2613 7 2504 8 2314
1553 -0.0061879830477106516 1.0158014786495926 0.23203647074932224 59 92 78 0.22723752266789585 11 2076 2 2530 1 2290 10 513 13 2295 14 356
1554 -0.73495285356131368 1.0247493535863166 0.30784214906849144 161 123 137 0.13777611997491551 11 2124 2 2532 1 3461 10 3629 9 3505 7 2545 8 3511
1555 -0.27750947436918461 1.0304193360077851 0.19648510534796246 136 87 115 0.16964040756444621 11 2105 2 2537 1 2331 10 2540 9 538
11828 -0.95868916415317273 0.49949498436182427 0.98882453820672489 154 127 136 0.21279256906197203 5 4457 6 4712 7 4293 8 4244
1556 -0.10959805886574195 1.0327326552624256 0.2070161305166229 105 82 65 0.14528650725962189 12 573 2 2541 1 2318 10 570 13 354
11829 -0.96302696613017891 0.4834912176134728 1.0459989819485906 165 150 145 0.14345037837569935 5 3968 6 4713 7 4770 8 4247
1557 -0.28341529260297815 1.0391776261700612 0.19387610330069324 82 36 65 0.25081704837117946 11 610 2 2544 1 648 10 632 9 554
11830 -1.0315265223969472 0.56082597698523362 1.0079341127347314 192 197 155 0.20988512655894054 5 3982 6 4729 7 4309
1558 -0.8356087196477805 1.0357626517409679 0.36265464321981372 67 40 47 0.39481298155737682 11 2145 2 2546 1 2410 10 3651 9 2564 7 2612 8 3547
11831 -1.0066941414251649 0.84348370256130778 0.59928603241925282 191 165 194 0.61186814660052025 9 4575 6 4731 7 5118 8 5130 5 3240
1559 0.063607972461305159 1.0312634895659074 0.24767207035733665 34 43 42 0.13185478005315585 11 2100 12 603 2 2549 1 2307 10 521
11832 -1.0254044312575341 0.90983628341113454 0.58011091987472352 184 146 185 0.21570895883009028 9 4919 6 4746 7 5127 8 5136
1560 0.58993225410762284 0.97410009478188375 0.65530495668259614 174 172 155 0.2515855059552185 11 2067 12 3428 2 2551 1 565 13 3539 14 3583 15 3801 16 3749 17 2259
11833 -1.1047626388881391 0.70367558049807755 0.89608211977681629 128 37 78 0.44522097963971918 5 4501 6 4748 7 4807 9 4127 8 4792
1561 -0.31846904830613537 1.0486086030860955 0.1920519655503867 165 103 144 0.33826497774210401 11 632 12 2299 2 2552 10 2561
11834 -1.0851432643706465 0.92853006070175781 0.65428786921343718 209 186 212 0.3414103212233649 9 4167 6 4760 7 4823 8 4328
1562 -0.0099795573217601082 1.0402712821877922 0.22437726399872587 118 154 140 0.14584353034942749 12 2330 2 2559 1 2325 10 543 13 383
11835 -1.1570298291742651 0.83460634257946043 0.86725257902048791 139 171 160 0.21982229307060427 6 4767 5 3329 7 4832 9 3523 8 4817
1563 0.16943755771092689 1.0288169717634201 0.28950860979302012 77 73 71 0.10149468180858745 11 2097 2 2564 1 2302 13 422 14 425
11836 -1.1663091805093611 0.80402758660817664 0.91452027776472833 116 159 146 0.22416402059073903 5 4025 6 4768 7 4829 8 4814
1564 0.1695403164044155 1.028660575726571 0.28958423546290601 77 73 71 0.1165700777824516 11 2096 2 2565 13 423 12 637
11837 -1.1790678652658397 1.0187189431327699 0.79653583598275379 179 176 154 0.27443238677513715 5 3363 6 4786 7 4863 8 4852
1565 -0.61005352815447589 1.0564753445540025 0.24588439843939555 102 68 67 0.26581285021547235 11 2148 2 2567 1 2403 10 2633 9 2495 8 587
11838 -1.1675869735303972 1.0531057945519113 0.76297508016628446 186 203 157 0.23105576101537517 5 4048 9 4641 6 4790 7 5165 8 5186
1566 0.52724936332739503 0.99360586753620361 0.56476326219756612 115 82 113 0.11124667598872753 11 2084 12 2413 2 2568 15 2581 16 551
11839 -1.1706461817507134 0.73251919280327515 1.2670710297721957 188 202 153 0.19452762957155642 5 4546 6 4793 8 4828
1567 -0.79491070264446961 1.053121507237375 0.33542324043707411 165 91 123 0.25103523930304206 11 2160 2 2570 1 3477 10 3654 9 3534 7 3675 8 3544
11840 -1.1989834807401378 1.0279906611627496 0.84224311013997011 171 183 144 0.42116923370740766 5 4065 6 4806 7 4870 8 4858
1568 -0.24360933584642117 1.0568723696049509 0.18798192583281567 150 131 128 0.13020996500417242 12 580 2 2573 1 2367 9 565
11841 -1.2155519730738038 0.84221062678790959 1.221363417733486 207 189 200 0.49882982543483573 5 4558 6 4819 7 5168
1569 0.39375369601232718 1.0177654709225401 0.43429154378597384 153 103 133 0.31855384326880271 11 597 2 2577 1 2292
11842 -1.2109330239394642 0.92345060602078755 1.4406132942802166 145 155 172 0.1950032999548649 5 4173 6 4849 7 3870 8 3751
1570 0.57526394345867871 1.0001119808008694 0.6226159855549197 161 151 152 0.26093587713558486 12 3436 2 2583 13 3547 14 3588 15 3804
11843 -1.2700860425616931 1.1276786923835458 1.0923620151428324 147 124 131 0.65614582813080491 5 4146 6 4852 7 5205 8 5220
1571 0.47444352171852466 1.0191577018402598 0.4992793353408691 122 47 87 0.27119651252015092 12 749 2 2595 13 2388 14 2398 15 2570 16 515 11 3144
11844 -1.2624656242814598 1.1501268580105626 1.0654650067421774 97 6 49 0.26612481024208051 5 4594 6 4853 7 5207 8 4892
1572 -0.63040648900309515 1.0746856494854953 0.2505024215727838 150 162 138 0.32221936747084295 11 3178 2 2596 1 3478 8 2337 7 2522
11845 -1.1745726665781457 0.92105564626239078 1.5690763617306107 147 151 190 0.33440808528576177 4 4391 6 4860 7 4888
1574 0.6419933760784281 1.001851525376201 0.72511945015343793 85 85 73 0.147146787589329 12 3444 2 2608 13 3564 16 3776 17 2337
11847 -1.1750213299086554 0.99423119396338722 1.6237261316680154 150 47 94 0.23470476932909712 5 4639 6 4877 7 4487
1575 0.068741419151250413 1.0718348201203185 0.23917802280425071 63 60 55 0.19668490407752112 11 2147 2 2614 1 677 10 584
11848 -1.2083119675542098 1.028619369495918 1.5672101127936597 156 59 104 0.62329682954628329 5 5012 6 4883 7 4905 8 4440
1576 -0.58629485018819194 1.0937667923802887 0.23111080388831629 123 130 130 0.19191331658089297 11 2178 2 2615 1 2444 10 3648 9 3512 8 2326
11849 -1.1417131060753123 1.0214850003318203 1.7185088716364669 129 38 78 0.47836892363904887 5 4652 6 4888 7 4494 8 4435
1577 0.4984344327733029 1.0450028889293737 0.51510794262880577 159 116 145 0.56915394403134301 12 797 2 2624 13 2413 14 621 15 647 16 572
11850 -1.1001474575322758 1.0616669698645425 1.8172439964252045 150 81 112 0.4363909447620179 5 4666 6 4894 7 3923 8 2859
1578 0.65262268607843876 1.0219601207639064 0.73822688849543827 154 130 153 0.41940694212510049 12 4061 2 2625 13 4245 14 4262 15 4543 16 4420
11851 -1.2700795663701472 1.408631279820612 1.1145302243372011 158 170 138 0.26861055521184002 5 4209 6 4896 7 4949 8 4947
1579 -0.67636125965049565 1.1042333716407084 0.26416035083118933 137 134 138 0.19136502190270485 11 2187 2 2626 1 2455 10 2685 9 2568 7 658 8 2386
11852 -1.2849737205774372 1.3240600493223438 1.2544425651437312 180 143 168 0.18424210302989177 5 4647 6 4898 7 4944 8 4941
1580 -0.17616616596297577 1.102244549487202 0.1810038778568461 149 90 120 0.3185175323131812 11 3185 2 2628 10 3614
11853 -1.2875030378335179 1.3360554891203269 1.3155133410215099 210 196 124 0.11264297975905499 5 4223 6 4907 7 4954 8 4520
1581 -0.051390459389862739 1.105734165138988 0.19948669645847128 42 59 55 0.12786717150048263 12 708 2 2636 1 2413 10 694
11854 -1.2820355306297555 1.4666557350846012 1.2468222882159534 128 111 112 0.34252804807297088 5 4231 6 4930 7 4967 8 4965
1582 -0.59323934002823875 1.1245186482198066 0.22760095470927427 126 136 135 0.50240061756546583 11 2203 12 622 2 2639 1 2468 10 2686 9 2557 8 2358
11855 -1.1750824753375613 1.288070510888254 1.7814805818081763 101 39 74 0.33552234658954738 5 4299 6 4947 7 4010
1583 -0.20425627575020427 1.1212821560808988 0.17889888016147748 153 131 133 0.15515911511580202 12 688 2 2644 1 780
11856 -1.2809949335358277 1.5327617535650364 1.3974010474710716 195 158 129 0.24893501846128571 5 4696 6 4953 7 4988 8 4990
1584 -0.041667284601820273 1.1156973869238971 0.19993267157970743 75 94 90 0.12219284939464939 11 710 2 2647 1 762 10 710
11857 -1.2428556309304599 1.4380459522480689 1.6577206066625458 182 183 167 0.20118033909907368 5 4714 6 4961 7 4587 8 4558
1585 0.013765860060022738 1.1151418995980125 0.21476737584325364 152 162 156 0.32788007990238521 11 2182 2 2648 1 2423 13 493
11858 -1.219053594601883 1.4869131222714509 1.7168437597336392 135 148 148 0.53346027687712561 5 4719 6 4967 7 4593 8 4569
1586 -0.59820734020279276 1.1492647660750017 0.22747725105989189 68 70 67 0.24374007445780072 11 2223 2 2655 1 2491 10 2705 9 2584 8 669 7 643
11859 -1.2612720568543903 1.5791464780453501 1.5417605566037871 138 93 114 0.42004221025144822 5 4322 6 4968 8 4587
1587 -0.76775802936104687 1.1535344442395512 0.30716513778592125 159 171 136 0.34981958816635594 11 2241 2 2658 1 2504 10 3695 9 3572 8 3573
1588 -0.82335934502564379 1.1559565676172407 0.34215081740247244 177 174 159 0.33487185746452408 11 3220 2 2662 1 3521 10 4251 9 4622 7 3702 8 4323
1589 -0.63623038597990667 1.1583827573097059 0.24265491359066038 125 138 131 0.4349196975554051 11 2236 2 2663 1 2502 10 2721 9 2605
1590 -0.14395114218610638 1.1472964824767433 0.17961059630413867 129 124 121 0.12985066687991292 12 745 2 2664 1 2461 10 795 9 646
1591 -0.56672030466265 1.1612025819642269 0.21709953080859515 140 97 114 0.41779753456362262 11 773 2 2666 1 3513 10 2712 9 2585 8 665
11864 -0.68520496548232268 2.4042515924319692 1.676332799315233 162 184 172 2.0429352605317961 5 4748 6 4988
1592 -0.65049536091603144 1.1676011110855908 0.24857913697192985 52 35 46 0.082435236400987877 11 2247 2 2671 1 2509 10 2732 9 3562
1593 0.5427126829134572 1.1030185398068646 0.55021591280064741 99 77 96 0.14625426263341015 11 714 2 2672 1 745
1594 0.5426467473266039 1.1028029187348569 0.5492910872032909 99 77 96 0.19270767044745454 12 881 2 2673 13 663 14 703 15 2666
1595 -0.012109565883162317 1.1522986660800829 0.20167748262175089 123 97 110 0.26932848835868312 11 2217 12 780 2 2675 1 2463 13 530
1596 0.12596850686040711 1.1455269157207182 0.24732152545792604 125 124 59 0.16679216583960191 11 740 2 2676 1 799 10 718 13 557 14 561
1597 0.089268149632372701 1.154137933827835 0.231685572846174 199 193 135 0.16021859468918509 12 2459 2 2678 1 809 13 555
1598 0.69060311230132709 1.0948608326829661 0.79756102542555318 92 69 96 0.19037575110019028 12 3487 2 2681 13 4275 14 4289 15 4575 16 4453 17 3535 18 2654
1599 0.57114449495777941 1.114669498108124 0.58189312234459212 124 104 129 0.18866025411497986 12 3475 2 2683 15 2709 14 2525 16 2745
1600 0.36667340063017195 1.1432797995153301 0.37958805229465037 138 89 119 0.203315959062628 11 2216 2 2685 1 791 13 2455 12 2493 14 2458
11873 -0.5616197876241672 0.17706754697308408 1.0815269623200618 180 181 156 0.96862824095992994 4 5324 7 4712 6 5021 8 3336
1601 0.17605993077156523 1.1715890329320633 0.26471427581360429 103 100 53 0.10194490714617986 11 2234 2 2693 1 2473 10 754
11874 -0.69260825628545597 0.3218053122430517 0.83140966257174875 204 194 196 0.56164839745978468 5 4798 6 5026 7 5066 8 5079
1602 0.59595714992220372 1.1351483870734989 0.61386489798178467 193 180 193 0.49962626830803408 11 759 2 2694 13 3607 14 4275
1603 -0.11992503674670116 1.2018255701111276 0.17920057701332764 90 68 47 0.22836913360803962 12 2467 2 2700 1 2507 10 862 13 2405
1604 0.6210401549087966 1.1455354695140407 0.65511858119242239 195 174 194 0.32664219380582921 11 2230 12 4085 2 2701 1 807 16 3820
1605 0.079909072207503262 1.1977644025003551 0.22478457895567858 141 130 76 0.12058177210858262 11 2263 2 2704 1 2499 10 812
1606 0.6118282679433289 1.1526285002663608 0.63989979921642681 77 64 78 0.19658711553781599 11 2235 12 3502 2 2705 1 2459 13 3613 15 4564 14 4281 16 3817 17 2399
1607 0.6120069790554733 1.1525956008715528 0.64002874755637451 77 64 78 0.14927022660345482 12 3501 2 2706 13 3614 15 4565 14 4282 16 3818
11880 -0.82729179912816597 0.64704907092502717 0.60657001342559702 158 159 154 0.032344934002707715 5 4441 6 5048
1608 0.17268370740025515 1.1932341742379569 0.26369805957389963 156 167 153 0.14447256947021658 11 800 2 2708 1 848 13 619
11881 -0.82874839938466205 0.36866854855963421 1.2074730865890775 176 73 120 0.30810400034498769 5 4831 6 5055 7 4756 8 4731
1609 0.17245544384876399 1.1931451417477466 0.26398874225412777 156 167 153 0.14412697014154652 11 801 2 2709 13 620
11882 -0.93864444131627278 0.46251227838648762 1.0609607741365996 101 0 41 0.084305693136580581 5 4837 6 5062 7 5092 8 5102
1610 0.56088822418998663 1.1615802363686603 0.56669628002521433 174 160 177 0.21119532362730056 12 3499 2 2710 1 821 11 2240 15 3873 16 2770
11883 -1.0036262673973846 0.52737556308026323 1.0176750327969144 169 117 156 0.33432724124716284 5 4475 6 5069 7 5106 8 4764
1611 -0.75953289030703275 1.2368324963332669 0.30437735314426717 155 97 128 0.24094968321831239 11 3236 2 2714 1 3549 10 4269 8 3621
11884 -1.0357531799952573 0.6841085293639424 0.78418626469320063 137 36 78 0.51177494647091659 5 4472 6 5074 7 5111 8 5121
1612 -0.21081102905757651 1.2228489211946241 0.16734600108008391 163 116 110 0.20102603270810357 12 833 2 2716 1 2522 10 2699
11885 -1.0497872149727958 0.65975499217086786 0.84445302906213726 161 152 149 0.10611259441868451 5 4485 6 5077 7 5112 8 5122
1613 0.46450931960946223 1.1798236229453001 0.46045611173869311 112 55 87 0.067156213517110527 11 2252 2 2717 15 769 14 738
11886 -0.8826550642425145 0.40766506086774829 1.4133481729387218 143 33 79 0.55942509448322075 5 4871 6 5081 7 4783
1615 -0.24029777040229819 1.2545154877682567 0.17018872721282527 109 124 149 0.15004917287204222 12 866 2 2735 1 2543 10 2731 9 838
11888 -1.0752980166952411 0.59803465880260487 1.0370760105393049 181 197 150 0.089225473105713063 5 4499 6 5091 7 5116
1616 0.4390229255472306 1.2181081096769861 0.43556120287816175 50 20 39 0.18313664475246447 11 2274 12 2545 2 2739 1 2505 13 2529 14 2549 15 2720
11889 -1.1310258021973989 0.77466845903692005 0.86594062313453235 147 193 173 0.11297310871007198 5 4879 6 5095 7 5136 8 5143
1617 -0.73684721312169588 1.2756957731716705 0.29553862049350466 118 154 144 0.34800935069556821 11 3255 2 2740 1 4231 10 4273 9 4645
1618 0.037679436782812846 1.2484623643360468 0.2083030113125873 159 122 116 1.1938512997452835 11 2292 2 2741 1 924 13 646
11891 -1.1981975902459401 0.86334233668402194 0.96610056233270314 149 42 90 0.45420665250676934 5 4904 6 5110 8 5161
1619 -0.65174035230309613 1.2773601896079094 0.25339649845769957 74 48 60 0.093500575356406615 11 2307 2 2742 1 2575 10 2795 9 2674
11892 -1.1541141068157168 0.69873505297995431 1.2933261093682356 123 41 73 0.18165381860161545 5 4910 6 5115 7 5149 8 4820
1620 -0.7604197647002886 1.2979327618360879 0.31521598422712727 138 154 151 0.16792200446582384 11 3264 2 2750 10 4277 9 4655
11893 -1.2041354382555671 0.89651879363886677 0.95177297232693481 169 63 111 0.3017898371170345 5 4534 6 5117 7 5158 8 5168
1621 -0.74253517831429261 1.3046287702967627 0.30301454254144849 59 78 70 0.099215146429799422 11 2324 2 2751 1 2598 10 2831 9 2722
11894 -1.1453232578323598 1.122256378852962 0.70380252345281558 196 187 167 0.27801491171368925 9 4960 6 5123 8 5462
1622 0.041436616163040549 1.2731774502571633 0.21604190276186849 167 131 122 0.46556113382048486 11 2304 12 3494 2 2753 10 926 13 682
11895 -1.2062120289246403 0.95492152663740992 0.91348776769985085 193 106 148 0.11261520913590906 5 4905 6 5124 7 5434 8 5456
1623 0.20162271115178054 1.2652591251363412 0.2748453798058535 33 36 41 0.54689577586377214 11 2299 2 2755 1 2537 10 2676 14 712 12 959
11896 -1.2112853985719461 1.0657843835170635 0.8946122869040759 134 64 89 1.7323381651266767 5 4090 6 5141 8 5469 9 4956
1624 -0.18065187079204992 1.2796622609811179 0.17370165730765691 139 111 91 2.250621780152406 12 900 1 950 2 1065 10 1010 9 866 2 2756
11897 -1.1752620609585629 0.77971537469203989 1.3890655550735667 141 146 126 0.27443909798746713 5 4941 6 5142 8 4842
1625 -0.26571262998858569 1.3065469661163762 0.17609892531380955 133 137 141 0.24404188875616006 11 3263 2 2760 1 2577 10 3711
11898 -1.0980064488901657 0.73479624974898217 1.5639706542453082 130 70 106 0.37117935694616266 5 5214 6 5144 7 4864 8 4364
1626 -0.56486139193572904 1.3222804718280214 0.22726166204708445 147 146 141 0.25707875887900827 11 2333 2 2761 1 2602 10 2807 9 1053
11899 -1.2338815457289671 1.0489645012287661 0.97492706775344828 143 42 83 0.33447744208389096 5 4561 6 5154 7 4879 8 4872
1627 0.36335392661040683 1.2835306472974839 0.38159217282213997 163 160 153 0.28821904271184695 11 3254 2 2768 1 2547 14 2584 15 2746
11900 -1.2004130386937037 1.2255283508312322 0.82375431385239473 178 146 169 0.71924135693987079 5 4110 6 5160 7 5201 8 5213
1628 0.37609215361479553 1.2855096202363276 0.39131615187985785 70 53 54 0.12016747210531022 11 870 2 2769 1 2549
11901 -1.25184161685552 1.0487822991896696 1.071570515582106 143 33 82 0.8330711803713482 5 4951 6 5161 7 5452 8 5208
1629 0.37609334533451844 1.2854492576501091 0.39078503905813489 70 53 54 0.11152213072791928 11 869 2 2770 1 2548 13 2563 14 813 12 1016 15 828
11902 -1.1597222385411967 0.82798904977880483 1.5182025352855066 215 215 217 0.18289743863630201 4 5184 5 4979 6 5162
1630 -0.94636373472551272 1.3573177110664563 0.46729080251352345 152 125 156 0.84093811868289059 11 3903 2 2777 1 4683
11903 -1.2537192552889398 1.019531176655208 1.1753306209900927 130 27 70 0.3397597567801966 5 4967 6 5167 7 5200 8 5209
1631 0.038816120762342164 1.319403919276565 0.22159685526185979 143 111 107 0.90140651917707093 12 983 2 2778 13 734
11904 -0.93349954984004579 0.85127614859404965 1.8974048875172793 127 33 69 1.7984420362625249 5 5405 6 5173 7 3851
1632 0.48224531597658366 1.2874813457986169 0.48978747557288793 40 60 51 0.25827322045322038 11 875 12 3529 2 2779 13 3644 14 2633 15 915
11905 -1.2470596787382444 1.4450890528666533 1.0310886148492282 162 169 153 0.40772405752386282 5 4201 6 5204 7 5232 8 5257
1633 -0.04489326680353755 1.3246508582898056 0.20102707680675344 154 130 120 0.30936297763370108 12 973 2 2780 1 2581
11906 -1.2598917288921008 1.1846280159812825 1.4733082444727688 67 28 39 0.20633185149136912 5 4655 6 5211 7 4927 8 4926
1634 -0.52986782901927554 1.3522191718047818 0.22276656479947027 138 147 136 0.40268145682247836 11 3285 12 926 2 2781 1 3593 10 3743
11907 -1.2818990877189889 1.3506592242675981 1.2023731769241499 206 199 134 0.30128764906167993 5 4642 6 5212 7 5235 8 5253
1635 -0.72876200992242335 1.3609356824498038 0.30976535260915605 127 140 141 0.19381985533090265 11 3287 2 2782 1 3597
11908 -1.2818990877189889 1.3506592242675981 1.2023731769241499 206 199 134 0.30128764906167993 5 4641 6 5213 7 5234 8 5252
1636 0.28283467887806912 1.317703887820364 0.33348557246984267 66 73 35 0.15729414967467434 11 3270 12 2578 2 2787 1 2569 13 2567 14 2585
11909 -1.2828745606126091 1.343785725377705 1.2313231291611333 120 56 83 0.18903473211410937 5 4645 6 5215 7 5236 8 5254
1637 -0.42993401354980748 1.359320406498036 0.19772895357562742 197 187 162 0.2841941478551297 11 3286 2 2788 1 3594 10 3738 9 2670
11910 -1.2883599425624759 1.3371586196731136 1.2815512428901592 140 57 99 0.58416262312341782 5 5024 6 5220 7 5240 8 4944
1638 0.16096674718408641 1.3298680687243778 0.2683059981803646 37 41 45 0.053032926848198353 12 1010 2 2790 1 990 13 773
11911 -1.288072969628909 1.3020812726818729 1.3345143320692603 216 201 116 0.24977839152692266 5 5028 6 5222 7 5238 8 5250
1639 0.53954279945962846 1.3089363268717593 0.56251426273482774 72 40 48 0.12565535016542367 12 3537 2 2792 13 3667 14 3704 15 2871
11912 -1.2851515055313107 1.4320538358229724 1.2490778759723842 110 37 65 0.36072214036863337 5 4661 6 5230 7 5250
1640 -0.51963563300452387 1.3714914603643693 0.22582863295151059 84 68 53 0.13530402223311572 11 2360 2 2793 1 2631 10 2844 9 2703
11913 -1.2559405014425511 1.4015348228589537 1.5916540510946051 104 26 58 0.8157915018453763 5 5072 6 5247 7 5254 8 4969
1641 0.3184823189238446 1.3288257817424753 0.35729067574264245 166 124 127 0.11975291463458577 11 909 2 2795 14 2602
11914 -1.2616654441058941 1.44414085878968 1.5595898933645322 123 150 141 0.37412053032185411 5 4703 6 5249 7 4983 8 4973
1643 0.26354259614114056 1.3535632342560922 0.32867097009995117 107 71 90 0.24755293837846754 11 928 2 2802 13 817 14 841
11916 -1.2146471513050527 1.4604571769510613 1.756988014264425 105 30 63 0.61919539863059314 5 4720 6 5257 7 5263 8 4976
1644 0.27085946892305768 1.3589494434379386 0.33395607613436468 46 41 38 0.12130396312332208 11 940 2 2806 1 1016
11917 -1.2156423788231805 1.4575317655045945 1.7563405569896737 105 30 63 0.49428376406776814 5 4721 6 5258
1645 0.20220309553407895 1.3638414636585043 0.29764036068744215 72 30 58 0.16142811139652821 12 1044 2 2808 1 1024 13 813 14 826
1646 0.35034279686409409 1.3696710272994477 0.38730481178737569 148 158 142 0.038935093969309192 11 2356 2 2816
1647 0.6111614943100957 1.3550616598213872 0.68294176320848399 87 73 68 0.15915580038058033 11 934 12 2665 2 2818
1648 0.71451074698171857 1.356659934534548 0.92582871605409689 86 17 46 0.8705641432123461 12 4145 2 2822 13 4729 14 5067
1649 0.34076090924590002 1.3769558139444835 0.38894042174450344 158 161 150 0.36579725942861707 12 2640 2 2825 13 3659 14 2652 15 2811
1650 0.49444366010090351 1.375324692711128 0.53673029727721033 105 102 52 0.3706452033812187 11 953 2 2826 1 1027
1651 0.48141742847874047 1.3885675652964455 0.5165258123791221 131 129 77 0.33091613140823783 11 958 2 2833 13 2668 12 1174 14 2702
1652 -0.60405718123942076 1.452843256753618 0.27484901027765229 152 96 129 0.12786803709208305 11 2405 2 2834 1 2702
1653 -0.64275043081104577 1.4589712744056025 0.29410060773198998 183 153 157 0.19555706970882089 11 3323 2 2836 1 3640 10 3778
1654 0.36927542295013643 1.4005398912821252 0.41814519291792018 60 71 67 0.081261912031788688 11 969 2 2839 1 1067
1655 -0.29813054209821183 1.4466104211300068 0.20783002257801986 159 106 137 0.23554220333467821 12 2581 2 2844 1 2681
11928 -1.2122483632011749 1.8934212620518509 1.5873615014763927 174 190 183 1.2031456900814534 5 4743 6 5286
1656 0.30149102769797176 1.4121142047182054 0.37123668571725382 161 111 125 0.15799492681088459 11 983 2 2846 13 2636
1657 0.31087285890448946 1.4131533589055587 0.37734199556743336 70 51 53 0.18491574776884032 12 2655 2 2847 13 2638
1658 0.31087285890448946 1.4131533589055587 0.37734199556743336 70 51 53 0.18491574776884032 12 2654 2 2848 13 2639
11931 -0.37307714176077073 2.5968766123468838 1.3735562649736826 0 0 0 1.3751556621956991 2 5258 13 5140
1659 0.55795904492041681 1.4020426225167375 0.6187991114259459 105 105 65 0.25230949685908149 11 2373 12 3566 2 2850 1 1057 13 3709 14 3747 15 4007
1660 -0.96343686281818885 1.4980328973891868 0.5262852764016035 118 152 144 0.33010373741369564 11 3340 2 2852 1 4286
11933 -0.69670596177326427 0.29722239588790439 0.80740930308243708 145 45 83 0.20420370344817035 5 5122 6 5306 7 5314 8 5342
1661 0.19097411045113655 1.4328692438928887 0.31278403556412898 164 133 157 0.14379815826511932 12 2647 2 2859 13 2628 14 897
11934 -0.69032004197708352 0.34240445691281102 0.89373905827864686 148 65 91 0.13699932641136917 5 5126 6 5310 7 5320 8 5346
1663 0.58398237250834906 1.4252864020147873 0.66664169360848935 73 58 44 0.16322906969338419 11 2383 2 2866 1 1082
1664 0.54973928238258263 1.4303390906895714 0.61810299906539168 79 77 38 0.1609598334267015 11 1002 12 2704 2 2869 1 1093
1665 0.54973921747212851 1.4302129231844511 0.61838307656976821 79 77 38 0.18693875684111605 11 1001 2 2870 1 1092
1666 0.31736447752222702 1.4421733645334813 0.3919456586909692 37 37 41 0.12533408540945437 11 2397 2 2871 1 1115 13 2664 14 2685
1667 -0.11114603920277055 1.4694199504775876 0.22507869506470427 69 56 65 0.24929746196336255 12 2635 2 2873 1 2696 10 2855 13 861
1669 -0.076890249261430857 1.4688076152776741 0.23265786665584598 179 123 150 0.39008746344363182 12 1101 2 2876 1 2693 10 1205 13 871 9 2662
1670 0.22615102594096392 1.45674383680151 0.34007595323124878 166 143 151 0.2141190903624503 11 2409 2 2880 1 2669 13 2650
1671 0.22619476643157502 1.4566351920135308 0.33992122296123745 166 143 151 0.17854635246198289 12 2673 2 2881 1 2668 13 2651
1672 -0.11485795446883529 1.4786701694716899 0.23337381725113612 136 140 141 0.28673967364894282 12 1109 2 2882 1 2703 13 874
1673 -0.61486019541681747 1.513469365571978 0.29976759591865132 162 163 141 0.22262382155015978 11 2439 2 2883 1 2730 10 3790 9 2798
11946 -1.0051360208988098 0.66783810143579236 0.74016231890409045 134 26 76 0.42373949088097801 5 4839 6 5344 8 5396
1674 0.32469872466857391 1.4558479704442324 0.40266308028589831 49 39 40 0.11439169477739419 11 1029 2 2884 1 1126
11947 -1.0202763260469905 0.69641484270107989 0.74770950398309588 210 214 180 0.28468480678781688 5 5160 6 5349 7 5583 9 5154 8 5590
1675 0.3245639498588071 1.4558101427981627 0.40331793717973918 49 39 40 0.13189865217162774 12 2684 2 2885 1 1125 13 987 14 991
11948 -1.0823502011989101 0.66899301998560323 0.90038968332925784 144 39 82 0.25679510783016601 5 4863 6 5362 7 5385 9 4557 8 5405
1676 0.1988010140508584 1.4645700586053005 0.32940188532815312 79 117 104 0.097322811936356765 11 1049 2 2886 13 2648
11949 -1.0702183613321585 0.57436406169736987 1.1005945768532577 229 227 166 0.50517598684018816 5 5172 6 5364 7 5384 8 5403
1677 0.64583017802426324 1.4505792906057844 0.79550381100943057 181 166 157 0.24726600896121304 12 3600 2 2888 13 3748 14 4383 16 3081
11950 -1.0404081603934126 0.95766224172803427 0.58287902645915468 219 203 223 0.31689224916296577 9 5353 6 5366 7 5594 8 5606
1678 -0.73421303506167113 1.5419047570100541 0.36841552261974342 157 150 150 0.15561333244392986 11 2449 2 2897 1 2744 9 2854 10 2963
11951 -1.12674810389274 0.73834613713066599 0.89983362213068319 135 45 83 0.83051239639380514 5 5173 6 5368 7 5403 9 5168 8 5418
1679 -0.23350721005659766 1.509641920827312 0.22962516995394924 148 170 158 0.20810404862386278 11 2438 2 2904 10 2888
11952 -1.1266673650740049 0.7074964323730395 0.95464003660970043 179 67 116 0.31255967592095374 5 4877 6 5369 7 5402 8 5416
1680 0.59427542768548303 1.4709807970526885 0.70509316840362957 49 45 40 0.25517336658033557 11 2411 12 3606 2 2905 1 1122 13 4350 14 4376
11953 -1.1424287250196237 0.76379744609750555 0.90590157920571568 138 172 157 0.22934847481052489 5 5176 6 5373 7 5595 8 5421
1681 -0.78594669450452026 1.5551790967461065 0.40244173769791347 151 134 140 0.052190830827421819 11 3354 2 2906 1 3666
11954 -1.1597980005965531 1.024821036003297 0.74991114280211491 126 42 81 0.44231952250950268 9 4945 6 5386 7 5428 8 5455
1682 -0.78594669450452026 1.5551790967461065 0.40244173769791347 151 134 140 0.052190830827421819 11 3355 2 2907 1 3667
11955 -1.1743807043161749 0.73662990373145421 1.238581459994031 138 72 98 0.48400475961200939 4 4785 6 5390 7 5151 8 4831
1683 0.059140233042223725 1.503954806510283 0.28356427895410907 115 51 77 0.31249534309562038 11 2434 2 2914 13 2656 12 2682
11956 -1.2194728764037606 0.84217169908318823 1.1255146430923675 179 141 175 0.37716325904052717 5 4918 6 5395 7 5430 8 5451
1684 0.50900912802378051 1.4994678206234269 0.59309822787033606 190 189 125 0.30230786774898444 12 3609 2 2919 13 3741 14 3787
11957 -1.1754726641517039 0.76487952683916993 1.3275443553098558 195 194 128 0.22218755774556551 5 5196 6 5397 7 5427
1685 0.52185388796605825 1.4999670733418407 0.6150899060168038 154 150 105 0.20222883017834353 12 3614 2 2920 13 3745 14 3792 15 4045
11958 -1.2224521711968646 0.88860469077238413 1.1000787796770599 183 138 179 0.17577491710601464 5 5192 6 5398 7 5437 8 5458
1686 0.59153888866148852 1.4977926622387132 0.71545785420517438 163 148 147 0.51137484652526155 12 4172 2 2922 13 4358 14 4387 15 4651 16 3960 17 2665
11959 -1.1662028420880741 0.77699277085532936 1.420148625577013 65 61 60 0.45233077405488353 4 5160 6 5399 7 5166 8 4841
1687 0.29216074407593601 1.5135215933254962 0.40047855449403191 161 118 135 0.13484562405693484 11 3347 12 2720 2 2925 1 2706 13 2707 14 2737
11960 -1.2446264674386913 1.0246679426145051 1.0442557267155945 164 67 112 0.23949797222007452 5 4937 6 5402 7 5448 8 5204
1688 0.48601664403877304 1.5085324990726097 0.5744244571307715 104 97 33 0.17333234961754812 11 2427 2 2926 1 1172 13 1127 14 1147 15 2993 16 1165
11961 -1.2163585454590753 1.2198447272084985 0.86184288863482106 129 33 71 0.78191571895052925 5 4939 6 5405 7 5632 8 5634
1689 0.48601664403877304 1.5085324990726097 0.5744244571307715 104 97 33 0.17333234961754812 11 2428 2 2927 1 1173 13 1128 14 1148 15 2992 16 1166
11962 -1.2419150221056858 1.1807386609743791 0.97219547850971733 132 32 79 0.44857316974632677 5 4965 6 5413 7 5454 8 5482
1690 -0.26034570345491032 1.5522889958190735 0.24548113069157862 151 172 149 0.5319555355943435 11 2456 12 2667 2 2929 1 2741 10 1325
11963 -1.2607839760471657 1.0321401102774064 1.3058961050315965 179 178 160 0.4530239916040511 5 5230 6 5420 8 5478
1691 -0.38878923728658493 1.5626880429316448 0.25575729300104116 152 155 138 0.18394046867443212 11 2462 2 2930 10 2930
11964 -1.2761926934859102 1.1540603459257928 1.13441874882716 177 142 166 0.83691178000712785 5 4987 6 5425 7 5639
1692 0.53291754163577409 1.515404012529358 0.63652903983149189 110 107 56 0.14985157605133109 11 2432 2 2932 13 4354 14 4379 15 4641
11965 -1.2752922571360037 1.1700711151783201 1.3378298096137382 135 61 91 0.11775432764029878 5 5009 6 5430 7 5463 8 5231
1693 0.53295171952125076 1.5148462131526994 0.6372417938276802 110 107 56 0.065671959238212244 11 2431 2 2933 1 2697
11966 -1.1101683473070802 1.0354094155148126 1.7874937128074584 137 34 79 0.28550295986573354 5 5260 6 5435 7 4909
1694 0.6164043707945176 1.5230929474299821 0.77892345096596605 150 106 129 0.20108886209576965 12 3637 2 2934 13 3778 14 3841 15 4100 16 3988 17 2704
11967 -1.2881317920307582 1.3882645645087326 1.2529089539194058 134 146 122 0.33935740186619123 5 5027 6 5450 7 5482 8 5508
1695 -0.262256565503933 1.5629420467593034 0.25155217542959113 82 92 67 0.032143939766763253 11 2464 2 2936 10 2919
11968 -1.281549219808207 1.3551979320440892 1.3462584494053569 120 29 71 0.55133843203334731 5 5262 6 5452 7 5481 8 5264
1696 0.3998043589374346 1.5340522560498056 0.49826929736820857 80 68 33 0.26012867083189839 11 2444 12 2740 2 2937 1 2709 13 2752 14 2783
11969 -1.205612293055597 1.4339091191519702 1.7406597212533783 130 139 118 1.2182009100308768 5 5279 6 5466 7 5259 8 4972
1697 0.52320688474775312 1.5368710515240787 0.63839234392584876 138 138 68 0.63336553577748811 11 2446 12 3632 2 2940 1 1187
11970 0.065253625496653478 1.6380374949272922 2.3378267348995383 0 0 0 2.5485526226138768 16 5269 17 5549
1698 -0.48047528493949565 1.599241001662052 0.29197745797400598 149 137 137 0.54625263699184834 11 3370 2 2943 1 3686 10 2966 9 2820
11971 0.070741210161459581 1.7238379351923119 2.34695387286102 0 0 0 1.2837939703025663 16 5491 17 5551
1699 -0.36755740236238599 1.5896908402280283 0.26682667712136604 96 105 100 0.27164229412176033 11 1156 2 2945 10 2946 9 1257
1700 -0.22486392892330181 1.5831790806084165 0.25950689164139895 103 69 73 0.21367875940076883 11 3366 12 2692 2 2946 10 3785
1701 -0.28387343014781974 1.5907288007242963 0.26106789002410519 70 56 56 0.28053545455953299 11 2475 2 2950 1 2767 10 2932 9 1239
1702 -0.92022463350014383 1.6638414733090963 0.55183651597391903 138 108 123 0.23123208634866446 11 3382 2 2952 1 3709
1703 -0.47807467721773761 1.6175624000528104 0.29772062804116683 143 128 126 0.490041710725305 11 2479 2 2956 9 2836
1704 -0.40419767608063784 1.6171083077034749 0.28088123066285992 155 159 171 0.37628271953117026 11 2480 2 2957 1 1329
1705 0.33388550070302858 1.5766112571916446 0.4619884876338477 157 111 134 0.17851743818196497 11 2465 12 2757 2 2959 1 2733 13 3747 14 3783 15 4023
1706 -0.15015437248417185 1.6086166153286701 0.2764687543666996 93 50 70 0.1800323820351451 12 2719 2 2961 10 1347 1 1295
1707 0.33167428613924521 1.5911082067416564 0.46625330806321452 133 91 113 0.071577288289943378 11 2469 2 2962 1 2738
1708 -0.39748102180632794 1.6435669451793586 0.29535651126461082 146 144 134 0.1123390245101719 11 2488 2 2964 1 2806 10 2975 9 2833
1709 -0.20938501944765892 1.6275915598208186 0.28303170338826228 82 55 70 0.25222951394437354 11 1195 12 2724 2 2965 1 1331 13 1048
1710 0.45272193083986434 1.6007148179963449 0.59060516257720008 180 178 152 0.33489187710710649 11 1142 2 2966 1 1241
1711 -0.67501883963215537 1.6863965949561384 0.39912746634799268 138 95 115 0.066958695805737989 11 2511 2 2969 1 2825 10 3032 9 3732
1712 0.36653829270378119 1.6230629130985428 0.51643035891766165 112 58 78 0.17774115267471757 11 1176 2 2972 13 1258 14 1216
1713 0.28750372136333308 1.627732792479031 0.45216477182951692 156 143 153 0.12263542504790435 11 2481 2 2973 1 2763 13 2796
1714 0.19595893861993441 1.6321032620786722 0.40330025309817602 80 41 68 0.21592947666468643 11 1193 12 2767 2 2974 13 2779
1715 -0.1300332795444136 1.6527321658682901 0.30013681616625865 68 25 53 0.091728374386245815 12 2739 2 2975 13 1088
1716 0.24534077772453139 1.6383228715727143 0.43116220090234419 45 21 42 0.42792465490715004 11 1198 2 2977 1 1296 13 1220 12 1401 14 1169
1717 0.25063411829029331 1.6451001575862028 0.43639132667015085 76 91 96 0.42310024324622636 11 1210 2 2985 13 2805 12 1411 14 1179
1718 0.38426301114341188 1.6394548826842334 0.53692881779058854 131 131 115 0.43203274947115744 11 1188 12 3655 2 2986 1 1279
1719 0.62111758924714844 1.6590089835986901 0.88526399877363926 161 120 160 0.40467442649848917 12 2857 2 2987 13 4395 14 4434 15 4714 16 4589
11992 -0.99355238888086883 0.51219451536008231 1.0457349965133824 99 0 37 0.13389975434086848 5 5163 6 5541 7 5573 8 5388
1720 -0.27937016358499872 1.6898043869673343 0.30752067699556984 113 75 69 0.4356748978639306 11 1264 12 1332 2 2991
11993 -1.0036264160646835 0.72804439957240064 0.69123073719778017 151 44 90 1.0670846223182409 5 5158 9 5328 6 5545
1721 0.32199463771853137 1.6596228258812566 0.50057832141315928 57 44 48 0.090202656648851853 11 2493 2 2994 1 2780
1722 0.46441974508416728 1.6697146794072888 0.63365936962842428 51 57 53 0.14876576875762312 11 1220 2 2997 1 1306
11995 -1.0289962543045694 0.55402039874942455 1.0107183092077603 170 176 136 0.36237086203619817 5 5341 6 5547 7 5581 8 5584
1723 -0.54250753042754729 1.731549866559468 0.36907237394844716 148 151 130 0.12910176085457631 11 2527 2 2999 1 2849 10 3856 9 2914
11996 -1.0501071502960044 0.72731535209245501 0.76327052679976615 140 33 78 0.24956730751870329 5 5166 6 5549 7 5587 8 5595
1724 0.32671705080038232 1.6714438345287856 0.50641976064808869 153 160 145 0.08067513751758465 11 2500 2 3002 14 3835
11997 -1.0906767683575185 0.62265593145772336 1.3939978670996884 147 53 94 1.1357409911868799 5 5361 6 5559 7 5408 8 5145
1725 -0.70735017682148971 1.7629657199115469 0.45318423360621074 190 179 111 0.22710428687315157 11 3408 2 3009 1 3749 10 4399 9 4330
11998 -1.147059840046059 0.68607092711610929 1.242838267871863 126 31 71 1.7285820111002195 4 5133 6 5560 7 5413
1726 -0.11347076525606291 1.7142962122967991 0.32943037141782516 130 87 111 0.12215305379077433 11 2521 2 3013 1 2830
11999 -1.147059840046059 0.68607092711610929 1.242838267871863 126 31 71 1.7285820111002195 4 5132 6 5561 7 5414
1727 -0.54538039116424752 1.7619700429672092 0.38589381420236885 163 158 144 0.084496063557096449 11 2547 2 3017 1 3750 10 3868
12000 -1.1443145339666967 0.68849317156050982 1.3234210266128121 156 148 136 0.82619326537055038 4 5391 6 5563 8 5154
1728 -0.66386414817052397 1.7856322303463597 0.44469421262422176 130 126 78 0.30175345859216701 11 3421 2 3022 1 4351 10 4401 9 4333
12001 -1.1891377066341651 0.76774966981840054 1.1976873441253002 174 174 102 0.16987189822513979 5 5187 6 5564 7 5423 8 5438
1729 -0.26161325654808049 1.7367497890458261 0.32870970524930604 119 119 119 0.086187843999603608 12 1375 2 3024 1 2846
12002 -1.1961431745729811 0.999397583230061 0.86666889493805488 124 24 69 1.0080610220504655 5 5185 9 5199 6 5567 7 5612 8 5616
1730 -0.10265728997148051 1.7266683140871353 0.34107799285433599 139 93 113 0.25802203562321208 11 1296 12 2778 2 3025 1 1396 13 1210
12003 -1.1844667281735006 1.0561742721852749 0.79229002021902561 127 26 71 0.16368632890299054 9 5202 6 5568 7 5614 8 5619
1731 0.49207225502128726 1.7096778371018739 0.69752338436686701 55 61 55 0.27209341597543102 11 2513 12 3696 2 3026 1 2800 13 4393 14 4422 15 4139
12004 -1.2215914798768659 1.0995861413434362 0.89657041578470542 223 218 118 0.093312862100634816 5 5194 6 5572 7 5728 8 5729
1732 -0.11588040106955975 1.7482801670277399 0.34852744267266178 136 111 117 0.25294272253229255 12 2790 2 3037 1 2848 13 2809
12005 -1.1517721009279316 0.77983703986291153 1.4732278167644093 195 169 180 0.60525461158868321 5 5511 6 5574 7 5613 8 5454
1733 0.30539245328687292 1.7309207686009864 0.52415486229000985 100 112 112 0.46498783202252092 12 2862 2 3040 1 1372 13 2896
12006 -1.2375539875749044 0.94167117440668924 1.1481167569862953 171 131 169 0.084860416663354615 5 5203 6 5575 7 5618 8 5467
1734 -0.66041105862215033 1.8166016959643119 0.45989935475833899 121 114 59 0.20097331240526711 11 3436 2 3044 1 3769 10 4414 9 4756
12007 -1.2394430797079186 1.086550010367312 0.97373706493099055 174 187 147 0.16754299432915454 5 5201 6 5577 7 5730 8 5733
1735 0.41294296023682375 1.7483907250435082 0.63637384829363408 140 134 130 0.17155255179728152 12 2907 2 3050 13 2940 14 2965
12008 -1.2480401209155203 0.95718407880049494 1.1892954284940362 126 21 62 0.52316919549401353 5 5380 6 5581 7 5621 8 5470
1736 -0.67355045524279822 1.8259399166478498 0.47007837010651149 190 181 117 0.60094304042721225 11 3441 2 3051 1 3772 10 3893
12009 -1.2478800174609892 1.0767287724672223 1.0171145355813556 123 22 66 0.73637773140202878 5 5211 6 5583 7 5624
1737 -0.43306625286426909 1.793822770044315 0.36929301100931733 49 75 63 0.10879589478343603 11 2566 2 3053 1 2889
12010 -1.2344555993251942 1.1402838039405878 0.94138769005251821 112 0 57 0.19704333731001455 5 5208 6 5584 7 5733 8 5739
1738 -0.29935231830349734 1.7798348788456702 0.3570641770983734 104 64 77 0.1239284046751094 11 2561 2 3054 1 2872 10 3038
12011 -1.2234402258939268 1.1814514491279955 0.89579216158169095 222 217 169 0.41744019559172446 5 5206 6 5586 7 5735 8 5742 9 5507
1739 -0.40892296750164114 1.7931642155307879 0.36800317573283853 136 145 142 0.19055482990844985 11 2567 12 1405 2 3057 1 2888 9 1513
12012 -1.2538783158551285 0.97001023113705775 1.232680550055238 183 141 178 0.88124052119991936 5 5217 6 5589 7 5623 8 5626
1740 -0.022779567087415988 1.7587945494465025 0.37563860059100662 112 117 64 0.19730147273857379 11 2550 12 2826 2 3058 1 2850 13 2842
12013 -1.2562447596602253 1.0846981065119505 1.0636162597924019 129 123 125 0.16919548495061934 5 5215 6 5590 8 5477
1741 0.030268136597322234 1.7614231211969582 0.39575857470104403 77 103 83 0.34715518983985666 11 2552 12 1507 2 3061 1 1410 13 2856 14 1231
12014 -1.278818056639581 1.2068644007136218 1.1573526450648868 144 117 132 0.99662504425018439 5 5236 6 5605 7 5644 8 5644
1742 0.2975477462260136 1.7557014733478173 0.53412325314212961 146 112 128 0.1745447435198835 11 3407 12 2891 2 3063 13 3816 14 2939 15 1370
12015 -1.252780164255352 1.0828223552615559 1.4127147337160562 218 198 91 0.41813971573467718 5 5407 6 5606 7 5640 8 5639
1743 -0.11585234878907986 1.777510262473178 0.36433127439097468 88 76 55 0.067670392779361446 12 1474 2 3068 1 3747 13 1279
12016 -1.248141534011139 1.3484482320897342 1.5809063682220434 115 20 60 0.37548300119608341 5 5424 6 5622 7 5485 8 5266
1744 -0.43942146428917883 1.818680789559481 0.39040614132344137 38 57 45 0.097758253977460782 11 2578 12 1426 2 3074 1 2901 10 3085 9 2940
12017 -1.235291117595102 1.3956665391588925 1.6490391909680149 111 19 60 0.74874039245750501 5 5274 6 5630 7 5490
1745 -0.61309242868177249 1.8454000895346365 0.45636668163047273 125 121 58 0.10327385354252842 11 2587 2 3075 1 2920 10 3896 9 3013
12018 -1.2648062041457606 1.4535597466304682 1.5945261838223361 117 29 65 0.40011150699004805 5 5427 6 5634 7 5494 8 5276
1746 -0.61339655447407226 1.8455749872519731 0.45752704134460975 125 121 58 0.045675003798353389 11 2586 2 3076 1 2919 10 3895
1747 -0.42699884238770269 1.8251084783240128 0.38538435058034648 105 128 116 0.064905059708532734 11 2582 2 3077 1 2906
1748 -0.39367681407988409 1.8332883576325567 0.39301180529692348 157 98 124 0.29093219486478189 11 2588 2 3084 10 1674
1749 -0.44976838958008403 1.8456609655510883 0.40682304809144199 121 135 136 0.20741825847371045 11 2595 2 3085 1 3780
1750 -0.12532533683389932 1.8112402472517548 0.38162003902444919 180 181 137 0.81285638776262203 11 3443 2 3086 1 3762 10 1576 10 3845
1751 0.074554612383942259 1.8001621520238908 0.43352082650362112 63 78 55 0.25674626919858906 12 2882 2 3087 1 2865 10 1507 13 2893 14 2910
12024 -0.88439369181239658 0.54406497474440896 0.80805679798959751 149 154 138 0.94682338283141121 5 5463 6 5663
1752 -0.42081848146342787 1.8496747812644421 0.40552780686967621 112 135 129 0.32123622991466305 11 3455 2 3089 1 2921 10 3097
12025 -0.99813774592642168 0.57518812109736428 0.88585557216460065 132 31 73 0.47742192351406432 5 5335 6 5667 7 5572 8 5579
1753 -0.42081848146342787 1.8496747812644421 0.40552780686967621 112 135 129 0.32123622991466305 11 3456 2 3090 1 2922 10 3098
12026 -1.0509028346233222 0.76218363192607774 0.7246871131092828 228 220 231 0.33062841387250358 5 5344 9 5338 6 5674 10 5187 7 5709 8 5701
1754 0.052036918284534696 1.8098376691308424 0.43078718658030341 77 86 67 0.20923526561676606 12 2887 2 3091 1 2879 13 2899 14 1313
12027 -1.180498003088758 0.96000080317991843 0.83317883441895435 181 194 158 0.17789724676237834 9 5366 6 5686 7 5723 8 5717
1755 0.061727092006783821 1.8134314887122682 0.4402627828275652 163 168 144 0.06450711952853723 11 2575 2 3093 1 1446
12028 -1.2052229887771808 0.86696839412977789 1.0174541838063851 184 144 181 0.50051083629993909 5 5362 6 5688 7 5724 8 5715
1756 -0.11507732644213317 1.8348958942226845 0.39628394420860641 52 42 43 0.18815930650857723 11 1388 12 2865 2 3094 1 2902 10 1598 13 2882
12029 -1.1263070357748923 0.71818245505654532 1.4604067672168344 20 25 18 0.31474093018728433 5 5510 6 5690 7 5605 8 5440
1757 0.0027985601965306978 1.8405877759749449 0.43483824149782113 150 153 132 0.86873079600162306 11 3451 12 2898 2 3098 1 2903 13 2908 14 2921
12030 -1.1028795283961785 0.72055466924580658 1.5235990619141826 204 171 195 0.4353967239938617 5 5585 6 5692 7 5608 8 5442
1758 -0.24396958541889702 1.870761967689786 0.40547507145962869 128 53 88 0.17822953125632268 11 2617 2 3101 10 3087
12031 -1.1028795283961785 0.72055466924580658 1.5235990619141826 204 171 195 0.4353967239938617 5 5584 6 5693 7 5607 8 5441
1759 -0.17778224253391398 1.8636790702351809 0.40736916923224548 42 26 24 0.18853266795156268 11 2613 12 2884 2 3103 1 3785 10 3073
12032 -1.152662915378222 0.9289843151925713 1.6410716013265825 128 23 68 0.41253335462741442 5 5523 6 5701 7 5628 8 5472
1760 -0.035853804033928835 1.8515180244732234 0.41228534653458448 123 148 134 0.43283770498508645 11 2603 2 3104 1 1492
12033 -1.2801176481271903 1.2811822774548547 1.2899655747999215 138 26 74 0.24443264304906126 5 5527 6 5709 7 5740 8 5748
1761 -0.54933337380752878 1.9148240358809527 0.47355475465385544 85 82 42 0.10907932655502854 11 3470 2 3105 1 3808
