# 3D point list with one line of data per point:
#   POINT3D_ID, X, Y, Z, R, G, B, ERROR, TRACK[] as (IMAGE_ID, POINT2D_IDX)
# Number of points: 328, mean track length: 5.2872574148663496
9198 0.36893121893647984 -0.47996792863566273 0.29040010153380874 63 99 53 0.27738018798417929 13 1110 19 1880 18 1823 1 1709 17 1261 2 1281 16 1938
9199 0.77791410036148434 -0.45530858400274093 0.41133015494384395 93 14 22 0.98696095464757505 20 327 19 1885 2 1284
9200 0.22346701518217152 -0.44685840162554796 0.24202270857077779 232 226 230 0.25105871071570757 13 1129 19 1895 18 1188 18 1839 1 1045 2 723 16 408 15 275
9201 0.091911149052465696 -0.4438602388910024 0.20073358814266246 44 39 17 0.17918843061789061 13 2194 19 1899 18 1845 1 1733 17 1289 2 1697 16 1967
9202 0.091911149052465696 -0.4438602388910024 0.20073358814266246 44 39 17 0.17918843061789061 13 2195 19 1900 18 1846 1 1734 17 1290 2 1698 16 1968
9203 0.45895317424892884 -0.43075262345254756 0.31256317740952949 234 234 227 0.21794742426909891 13 1746 19 1903 18 1847 1 1732 17 1286 17 1699 2 1696 1 2208 16 1949
9205 0.045381987351227074 -0.42037525593948782 0.18157248339838822 107 126 69 0.36600856178420538 13 1759 19 1914 18 1860 1 1750 2 1311
9207 0.49230897583892208 -0.37696711639036184 0.31730568277901466 213 209 172 0.35760558352758581 13 1168 19 1925 18 1231
9208 0.56330229165413115 -0.35507818503606858 0.33922976025660428 80 91 51 0.24780197043774682 20 1567 19 1930 1 1757 18 1877 16 1335
9210 0.49783447582426121 -0.34584460370820735 0.31473412295579473 216 205 186 0.22309710066123717 20 1572 19 1943 18 1250 1 1109
9211 0.41409621594300017 -0.34967171069341924 0.29123483974365966 229 218 207 0.33786684422992452 13 1786 19 1946 18 1891 1 2235 20 2277 17 1729 2 1335 2 1719 16 1991
9212 0.54759616008697287 -0.32013749836830596 0.33196374636178616 112 133 75 0.22622041937280724 13 1193 19 1954 18 1898 1 1123 17 1328 2 1343 16 1999
9213 0.21820330224050757 -0.31768567944564163 0.22930010095600983 61 68 34 0.14220665473453115 13 2232 19 1956 18 1901 1 1785 17 1741 2 1728
9214 0.16528350582798806 -0.27405518439949955 0.20453122841217547 231 230 223 0.84462949585240166 20 2300 19 1967 18 1917 1 1141
9215 0.22451885412718511 -0.24085571411404558 0.22492647448739445 132 140 89 0.42687977140533423 13 1816 19 1975 18 1924 1 2255 17 1350 2 1360 16 2013 15 981
9216 0.17200530151804932 -0.23028407333606601 0.20814932638586475 67 83 38 0.3605806747029548 20 2306 19 1976 18 1925 1 1805 17 1754 1 2256 2 1743 16 1406 15 344 21 1227
9217 0.70708170549021554 -0.1799657433153635 0.36880573024100649 37 27 1 0.12779932565029212 13 1825 19 1987 16 2016 15 1572
9218 0.54854958405038157 -0.18677894047776109 0.32060505884823365 118 135 72 0.45680789089148799 13 1245 19 1988 18 1938 1 1181 17 256 2 820 16 1408 20 1654 15 340
9219 0.15803255351431822 -0.19988467086811137 0.20057859777080161 227 229 222 0.42264790012131004 20 2317 19 1989 18 1318 1 1815 17 848 2 1369 16 2032 15 1581
9220 0.54105894814995259 -0.18112096315636567 0.3174156686857208 79 96 54 0.54229191392278686 13 411 19 1991 1 1816 17 847 16 2020
9221 0.74085597005906401 -0.15949345401491499 0.37656217809898762 8 0 0 0.1972331613069456 13 1250 19 1993 18 1942
9222 0.45736046079130016 -0.16676826199434724 0.29040791070434957 229 231 226 0.57056943616639832 13 2269 19 1994 18 1944 20 1661 2 1759 16 2034 15 2007
9223 0.43538158340855104 -0.16682579983757048 0.28553029286159287 121 133 87 0.30159792274673675 13 1254 20 522 19 1995 18 1325 1 1823 17 1369 2 1374 15 1008
9224 0.12594651738751952 -0.18221505102378899 0.18783794106465534 220 224 195 1.1133700219451612 20 2320 19 1996 1 2279 17 1366 16 1426
9227 0.52701157363529438 -0.1249678239469465 0.30959311789109462 103 120 65 0.30199569132434489 20 555 19 2009 18 1347 1 1835 2 1389
9228 0.28657740387284969 -0.10828300079790318 0.23032173876675277 114 125 69 0.17934288726437136 13 1843 19 2011 18 1965 1 1842
9229 0.17398170035971253 -0.10288399730268376 0.20035199194821113 99 101 80 0.71156698279149966 13 1289 19 2018 18 1971 1 1239 16 1454
9231 0.33505285411687835 -0.055109908926549961 0.24446232423033709 74 80 46 0.43634989686139375 20 1729 19 2030 18 1980 1 2307 2 1800 16 2066 16 2489
9232 0.3111253373557103 -0.056208269536116573 0.23708961502377612 114 123 80 0.11226749109452128 13 1860 19 2031 18 1982
9233 0.31097089327268151 -0.056024770643593035 0.23717350849153984 114 123 80 0.17090235657048575 13 1861 19 2032 18 1981 16 1470 15 1065
9234 -0.08699606768883511 -0.071216060791530991 0.11624135045659373 166 60 47 0.1329407172457813 13 1863 19 2034 18 1983 1 1863 17 1409 16 1477
9235 0.79185324747510155 -0.022351506550625833 0.38241670551142037 142 20 42 0.38394233893853152 13 1862 20 613 19 2036 1 1864 2 1407
9236 0.55703610533545334 -0.02291111623582591 0.30966061357734892 230 230 215 0.57773481199190346 13 1866 19 2037 18 1989 17 1803 2 1804 16 2069
9238 0.21125190852545234 -0.016304760290784176 0.20241879304883775 113 137 61 0.30234786522233298 20 2369 19 2043 13 1880 18 1994 1 1871 16 2083 15 1079
9239 0.14183912928022671 -0.0079190621080790138 0.18048116819377646 40 47 23 0.34828071409843414 20 1771 19 2054 1 1880 17 1422 2 1419 16 1489 15 431 21 482
9240 0.53883326950633159 0.015934752086188619 0.30322046877598174 13 25 1 0.6362622707515424 13 1882 19 2055 18 1408 16 2508
9242 0.45038413326284055 0.12819609748827401 0.26270063396689081 26 83 164 0.41301830979044268 20 1817 19 2073 18 2013 1 2340 17 1435 2 1433 16 2117 15 1666
9243 0.19756080328660178 0.11385373447083372 0.18802611197864738 220 210 187 0.16284985679062053 20 1825 19 2074 17 1432 16 1538 15 480
9244 0.096040301277965784 0.11037953332810353 0.15705561517899569 224 217 142 0.53787082461315738 13 1914 19 2077 18 2015 1 2342 17 1434 17 1823 2 1835 16 2121 15 1127
9246 0.28383329270013047 0.15178682159433807 0.21155186851732305 200 172 96 0.47178989962486106 13 1921 19 2087 18 2029 1 1912 17 944 2 1441 16 1556
9247 0.67104910709039112 0.1763770323444199 0.3323207534592012 40 0 0 0.67570746748092481 13 1388 19 2091 1 2348 17 1828 2 1842
9248 0.48855736963051455 0.17845274451997234 0.27272052887879955 200 165 75 0.20822881935378901 13 1926 19 2098 16 2135 15 1143
9249 0.23015370592270959 0.17125337999701737 0.19329607586731301 200 150 74 0.50711624979152048 20 789 19 2102 18 2035 1 1340 2 340 16 780 15 1145
9250 0.40766915910886986 0.18523838620890645 0.25170103419666751 218 207 162 0.13131043164388026 13 1931 19 2106 18 2037 16 1569
9251 0.62019746994983471 0.20786089828473453 0.31034372879590177 32 79 176 0.56061982845322067 13 1932 19 2110 17 1845 16 2143
9252 0.28013767694182712 0.19239494202945964 0.21365335039158201 206 191 132 0.32984518328229218 13 1937 19 2113 18 2044
9253 -0.030388297987930506 0.18761984619262317 0.11271452805223828 220 182 115 0.39315038989975948 13 1953 20 2440 19 2119 18 2053 1 1936 2 1865 16 1582 15 1157 21 1955
9254 0.31035691389934844 0.21213144346764196 0.2148159675884479 193 112 56 0.15809102976493983 13 1944 19 2120 18 2054 1 1358 17 962 2 1466 16 1590 15 1161
9255 0.61731801380824092 0.24091288718153614 0.30640839023473565 8 2 3 0.16002362515727714 13 1410 19 2128 17 1466 16 2153 15 1167
9256 0.42938021975253327 0.23189797645779014 0.25057876821133462 211 165 72 0.29713305808894586 13 631 19 2130 18 2060 1 1366 2 954 16 2152
9257 0.24109274701490604 0.22365506742605781 0.19106359815542689 216 201 185 0.42142395330692484 13 1954 19 2133 18 2063 16 1602 15 1704
9258 0.41776867444581178 0.24170886525010313 0.2431443708192248 194 92 47 0.43316696761787499 20 2442 19 2137 18 1495 1 1372 17 1469
9259 0.2147906158412779 0.24362250228702062 0.18269772724065647 213 192 145 0.32904977641813504 20 1884 19 2144 18 2075 16 1620 15 1176
9260 0.60456507069020116 0.28106873716480252 0.2994563739547168 210 177 74 0.26257164994602356 20 1875 19 2147 18 1514 1 1961 17 1488 2 1484 16 2172 15 1719
9261 0.60904666318912126 0.28889753593431233 0.30247838962340556 164 57 17 0.15563812299786497 20 1879 19 2150 18 1517 1 1388 17 986 2 979
9262 0.60911498410529452 0.28879879704151867 0.30251574593835701 164 57 17 0.15501363036923088 20 1880 19 2151 1 1389 2 980
9263 0.19590580343561426 0.28524988137749047 0.17170844558107839 156 41 26 0.14190732141636142 13 1982 19 2160 1 1972 18 2094
9264 0.14663426692476236 0.29508799538213526 0.15677630637792545 222 209 167 0.22216643557832536 13 1990 19 2167 18 2099 1 1978 16 1640 15 1202
9265 0.08587544999798602 0.30951463740337976 0.1370696687497388 231 236 232 0.1962141805650626 13 2000 19 2173 18 2107 1 1990 17 1504 2 1895 16 2200
9266 0.40031265404127492 0.33903752417465177 0.23191891015795224 184 57 66 0.41779785504164252 20 932 19 2177 1 1994 17 1512 2 1506 16 880 18 768
9267 0.4675138643891798 0.3477443303729254 0.25180290840248687 155 30 5 0.26766200898832193 20 1947 19 2178 18 2111 16 2215
9268 -0.051624719159417361 0.31545180548084095 0.09623454940113893 123 44 47 0.367493960732449 13 1496 19 2182 18 2115 1 1420 17 1508
9269 0.5162935151316187 0.35733763494005832 0.26557008680801486 204 148 77 0.40633619475094335 13 1997 19 2183 18 2118 1 2004 17 1523 16 2226 15 1760
9270 0.17432495515808016 0.34450417390374133 0.16366528124700402 215 167 118 0.5232545297061596 20 1964 19 2190 18 1565 1 1424 17 1007 2 1023 16 1665 15 1217 21 753
9271 0.25060399370431619 0.35662904276563989 0.18469383739116652 94 13 29 0.2732370497522475 13 1499 19 2191 18 2125 17 1527 2 1515 16 2227
9272 0.47826234598413953 0.38159115550241912 0.25284672228263805 79 1 1 0.38559410582561388 13 2009 19 2195 1 2424 2 1912 15 1768
9273 -0.064658451516758808 0.35046400522838506 0.088680245073972402 191 45 95 0.2469179139355612 13 1520 19 2197 18 2129 17 1533 16 1671
9274 -0.064664871741237792 0.35047196940214959 0.088674775278533541 191 45 95 0.30480151072363199 13 1519 19 2198 17 1534 16 1672
9275 0.6694543045542567 0.42537710853821231 0.31118018321885843 24 63 149 1.4056342727199937 13 2019 19 2206 1 2028 17 1905 2 2208 20 2902 16 2617 15 2374
9276 0.36364412457650136 0.42142326936941737 0.21465258943198195 137 18 10 0.19524091069514529 20 2922 19 2212 18 2134 18 2484 16 2616
9277 0.060779104197303528 0.41272083167845164 0.12146359429866349 211 216 211 0.19723351704711711 13 2043 19 2222 18 2144 1 2038 17 1550 2 1538 16 1714 16 1715
9278 0.12552763840394524 0.42281591532932394 0.13989088253750032 222 216 219 0.24538395322437481 13 2044 19 2224 18 2145 1 2042 2 1540
9279 0.12552763840394524 0.42281591532932394 0.13989088253750032 222 216 219 0.24538395322437481 13 2045 19 2225 18 2146 1 2043 2 1541
9280 0.45564835556348049 0.44879802977084132 0.24153482335902959 189 137 104 0.22482564405688996 13 1534 19 2226 18 2148 1 2048 17 1567 2 1542 16 2267 15 1805
9281 0.079286509324555693 0.43240334161162625 0.12573238336156661 189 66 97 0.37322638684977166 13 2054 20 2037 19 2239 18 2159 1 2053 17 1565 16 1730 15 633
9282 0.057197890434367633 0.43250475275799527 0.1191633808483698 191 77 102 0.34222287194355261 20 2041 19 2241 18 1630 2 1069 16 979
9283 -0.018651156159427473 0.43771724618274988 0.094508829462268823 216 216 214 0.29807681383498746 20 1157 19 2246 1 1504 2 1076
9284 0.12417981483499141 0.47309188683599041 0.13607402110290873 168 57 87 0.13829476189761492 13 1579 19 2254 18 1652 20 1181 1 1518 17 1088 2 1088 16 1770
9285 0.79056626930757079 0.52270835804041327 0.33255937860219287 31 0 0 0.40053033557666123 13 2048 19 2256 18 1655 1 2071 2 1558
9286 0.59419560594700904 0.51013168987408708 0.27674754800521406 103 2 8 0.24902220910161754 13 1557 20 2026 19 2258 18 2171 1 2069 17 1578 2 1560 16 1783 15 1312
9287 0.56750767902498878 0.50932988021594672 0.26929514018381218 0 0 18 0.30407929070420131 20 1100 19 2259 18 1662 1 1521 16 2290 15 1822
9288 0.69403867606588887 0.52798600181705713 0.30591507250939631 59 0 0 0.19143278153240595 13 1564 19 2264 18 1673 1 2077 17 1588 2 1096 16 1800 15 1322
9289 0.72150517721395147 0.53415130303376834 0.31444780426669833 50 1 0 0.21477469429385623 13 1567 19 2268 18 2178 1 2082 17 1592 2 1570 16 2299
9291 0.55240300002579579 0.52964284168120346 0.26272123069663528 180 153 50 0.19319267623170658 13 2068 19 2271 1 2084 17 1593 2 1572 16 2296
9292 -0.049809004193709955 0.49734569269202222 0.081519012575390876 230 217 220 0.54538708956628357 13 2487 20 2573 19 2275 21 2099 18 2185 1 2085 16 1780 15 1819
9293 -0.05011066867096043 0.49697099187625438 0.08079813639380054 230 217 220 0.34236149790564985 13 2488 19 2276 1 2086 17 1950 16 1781
9295 0.16638717927220895 0.52887447897280382 0.1450096420758904 176 94 101 0.26832769593010009 21 2097 19 2283 1 2100 16 2297 15 1825
9297 -0.076556095396054819 -0.8699913867927791 0.21544691112521608 160 164 60 0.51675847917162276 13 2076 20 2577 19 2287 18 2191 1 1585 19 1741 17 1165 2 1583 16 1851 21 1700 15 1394
9298 0.23810347607993296 -0.85441395805466736 0.31546422184565015 160 167 89 0.44471790257119809 13 2086 19 2291 18 2197 17 1612 2 1592 16 2319
9299 0.59356430288818929 -0.82905601329948875 0.42065308607153096 60 25 37 0.4683570806225329 13 2098 19 2297 16 2312 15 1354 20 1278
9300 0.68843167662693017 -0.82180169532464098 0.44861486057829503 33 16 11 0.77975092863350537 13 2108 20 2105 19 2300 21 50 18 2201 1 2500 21 2134 17 1965 2 1981 16 2310 15 1348
9301 0.39341661689822927 -0.81349813043464303 0.35027866134706143 135 129 45 0.32505125169922533 13 2106 20 2600 19 2305 18 2205 1 2123 17 1623 2 1600 15 1859
9302 0.69253259451381 -0.74929921602160243 0.42058812455752614 51 16 17 0.83131881390197082 20 1312 19 2313 1 2128 17 1184 18 1030 2 1606
9304 0.72129652101992148 -0.7156055359528819 0.42081470811924693 37 5 8 0.22112306526934533 13 2132 19 2319 1 2507
9305 0.78724454005175515 -0.70084520363481284 0.43566010038847236 113 47 49 0.42192688683092128 13 2134 20 2636 19 2323 18 2212 1 2137 17 1636 2 1618 16 2342 15 1876
9306 0.79528246056585694 -0.68611048814046971 0.43795374699660505 50 5 18 0.29643220614078564 13 2138 20 2147 19 2326 21 1775 1 2139 17 1639 2 1622 16 2345 15 1877
9308 0.71299201886567398 -0.64621952197241372 0.41202753959633276 208 204 202 0.17397066253470705 13 2145 19 2341 1 2516 16 2351
9309 0.35452362015936528 -0.63015084073139416 0.29675497354680153 18 28 10 0.20074209833427181 20 2159 19 2343 1 2153 17 1652 2 1635 16 1896 15 1429
9310 0.291625875459812 -0.62485439412891064 0.27613944409880253 190 215 142 0.50265209073986772 13 2150 19 2344 18 2223 1 2157 17 2001 1 2521 2 1636 2 2011 16 2373 15 1436
9311 0.065524902800268764 -0.63029907142835184 0.20780710864591506 106 25 33 0.49465409707845737 13 2149 19 2345 1 2522 16 1915
9312 -0.014162367895372476 -0.63037396503234466 0.18413124856536917 158 43 46 0.29696858894874517 13 2148 20 2639 19 2347 21 1765 18 1784 1 2160 17 1228 2 1644 16 1918 15 847
9313 0.54662304047749311 -0.60951544412253245 0.35574522629453381 129 33 44 0.28485461692933095 20 1407 19 2349 1 2158 2 1227 16 2367
9314 0.34651659382220118 -0.61617304216187196 0.2938610032944895 6 19 7 0.17768539911114692 13 1674 19 2350 18 1788 1 1657 17 1222 2 1229 2 1643 16 1903 15 1434
9315 0.24283299814979534 -0.59949490117250848 0.26009293445355486 215 197 125 0.38229795707651715 13 2152 19 2357 18 2231 1 2166 17 1659 2 1648 16 1916
9316 0.59314701971045181 -0.57612814793119849 0.36600906548641482 89 17 29 0.1699100067044885 20 1440 19 2361 1 2168
9318 0.077169402598118053 -0.58128345922182945 0.20641205592790701 49 5 6 0.44568147415244197 13 1690 19 2369 2 1653
9319 0.31516853611567097 -0.57331693660076755 0.27947616448995555 1 10 9 0.35102965163206301 20 2184 19 2371 17 1666
9320 0.013837033849287025 -0.57668363238797682 0.18625097478756464 139 34 38 0.12481482779100188 13 1056 19 2374 2 1656
9321 0.41557790835542169 -0.5473786021178908 0.30846317976973769 207 206 152 0.55791873994994368 20 2202 19 2376 18 2236 1 2527 20 2665
9322 0.47210481605797849 -0.54279271686572517 0.325927936102268 79 135 93 0.44211062280583813 20 2203 19 2378 18 2237 17 1670 2 1658 16 2388 15 1446
9323 0.58195338162649557 -0.53066429946648397 0.35860261935161886 25 3 5 1.8664531184149462 20 1453 19 2380 17 1672
9324 0.44888579751907248 -0.51954941444364766 0.31884103514987733 0 2 5 0.33818309576075123 13 2174 19 2386 18 2243 1 2180 2 1666 16 1922
9325 0.60268396789796785 -0.51081837925702156 0.36393529926310675 51 2 6 0.16051990763669169 20 1466 19 2388 18 2245
9326 0.60175353857425662 -0.51033526470723312 0.36551944160453009 51 2 6 0.20289111347149849 13 2176 19 2389 18 2246
9327 0.47223052942131299 -0.51648634735905297 0.32328872298488959 120 144 78 0.19203328038083761 13 2175 19 2390 18 2244 17 1677 2 1667 16 2393 15 1453 20 2206
9328 0.45507099164389747 -0.47595387000812678 0.31474436960517127 195 211 166 0.53458491500183358 13 2185 20 1486 19 2400 18 2259 1 2197 17 2016 2 2027 16 1935 16 2403 15 1921
9329 0.33234629581728259 -0.46777426413045792 0.27728115479432047 124 140 92 0.24394729250967118 13 2188 20 2222 19 2402 18 1826 13 1734 1 1715 2 1286 16 1942
9330 0.038577996553710053 -0.45586240362788388 0.1902564799163996 226 223 206 0.37470962703737121 13 2549 19 2406 18 2263 1 2203 17 1701 2 1689 16 1966
9331 0.39047679481129305 -0.43539652784539162 0.29241746928480328 219 215 206 0.28245140874946811 20 2228 19 2410 18 2267 1 2205 16 2414
9332 0.18091335638285189 -0.37860650405603297 0.22200411633375539 48 42 10 0.088706694213309858 13 2210 19 2422 1 2225
9333 0.18095455385235518 -0.3784601459271027 0.22201201643931362 48 42 10 0.10065165778625607 13 2211 19 2423 18 2286 1 2226 17 1723 2 1710
9334 0.51180727516018054 -0.35919233613079865 0.32166868328844678 223 218 211 0.56335629736716619 20 1568 19 2429 18 1875 18 2290 1 2229 2 1713
9335 0.22230235513032429 -0.36175572114680132 0.23394090128444744 227 218 207 0.19408026146151428 13 2219 19 2432 1 1767 13 1781 17 1319 2 1332 16 1998
9336 0.056444757606313255 -0.32731111301648008 0.18070720381482858 60 75 29 0.35093478777745718 13 2584 19 2442 18 2618 1 2241 17 1739 2 2064 16 2452
9337 0.09206801379494195 -0.31826178731397492 0.19089912767714357 224 222 223 0.56416342017165155 20 2284 19 2447 18 2304 1 1788 2 1731 15 966
9338 0.56311145718843647 -0.26882134017833631 0.33113842450764286 34 43 13 0.17392507271095459 13 1808 19 2456 18 2308 1 2247 17 1749 2 1735 16 2451 20 2299 15 1986
9339 0.2950406531532519 -0.25972714762821425 0.24483583597006159 126 136 77 0.31235056317766269 13 2589 19 2460 1 1799
9340 0.77655816073555628 -0.19232221081179288 0.39151221194657393 20 0 0 0.47807310720176455 13 2253 19 2465 17 2058
9341 0.21396217093574521 -0.21073455339764111 0.21882969134020974 220 223 210 0.51674176698758367 13 2256 19 2469 18 2320 1 2261 17 1760 2 1749 16 2466 20 2733 15 1577
9342 0.036905540102473613 -0.20430909853869417 0.16414886663892431 93 106 37 0.45981794407980636 13 1826 19 2478 18 1940 1 1819
9343 0.4864973933437689 -0.16182691727522144 0.30084163777620709 225 230 218 0.4040305622299778 13 2271 19 2487 18 2334 1 2282 17 1776 16 2728 15 2006
9345 0.35261839005381007 -0.14720846722135486 0.25808121778056559 226 229 208 0.30515222688496885 13 2277 19 2493 17 1781 2 1767
9346 0.19598710555488214 -0.14137767709769419 0.20802543670442858 73 84 37 1.1522922999647887 13 1840 20 2750 19 2496 18 2340 1 1838 20 1685 16 1443
9347 0.19536099620207942 -0.14150323283076652 0.20943504056244305 73 84 37 0.85731051179428563 13 1839 19 2497 18 2341 1 1837
9348 0.18309018272503455 -0.14148001992307777 0.2039933135851571 225 225 223 0.1224261337161596 13 2279 19 2498 1 2287 17 1785 2 1775
9349 0.53886993787102988 -0.10976100680693723 0.31160059419555186 87 100 45 0.91770746553110472 13 2286 20 1689 19 2499 18 2344 17 1787 2 1776 16 2045
9350 -0.05042185245675232 -0.097194431180709542 0.13037229458665184 110 14 7 0.48235352363912992 20 2350 19 2511 2 1797
9352 -0.039393015973435842 -0.050694315736284072 0.1277838816982711 213 177 115 0.55013528225976382 20 2365 19 2524 18 2360 1 2315
9353 0.10754526348016993 -0.0060615246188045939 0.17010623387996243 98 124 60 0.45995056301089809 13 2320 19 2537 1 2327 16 2091 20 2374
9354 0.10827497260294025 -0.0065935570728626689 0.17003579221735737 98 124 60 0.1215638289739715 13 2319 19 2538 1 2328
9355 0.43456275568985842 0.10205701165125167 0.27499545999832981 59 115 183 1.3372146123661783 13 2330 19 2554 18 2694 17 1818
9356 0.6459669950768957 0.13163555658141057 0.32427317570730491 140 8 27 0.63935672402844668 13 2332 19 2557 1 2641 17 2121 2 1833 16 2521 15 2079 20 2390
9357 0.31691778892061484 0.12478247055019422 0.22372568233419365 7 0 75 0.07331366938175965 20 2813 19 2562 18 2390 1 2343 16 2523 15 2082
9358 0.61747803330493689 0.16843568549264423 0.31249506647157815 73 109 170 0.26411955759871431 20 2817 19 2566 18 2394
9359 0.32514470996391448 0.15062336315808028 0.22416198597670606 194 127 47 0.20439020496555679 20 2822 19 2568 18 2396
9361 0.3675604299252288 0.16802232906757877 0.23726579004480658 198 146 57 0.42115585813336365 13 2344 19 2573 18 2401 1 2353 15 1140
9362 0.59983509532821988 0.19067931196613583 0.30976002670415242 15 87 161 0.72549468350164037 13 2345 19 2575 1 2357 17 1835 2 1846 16 2789
9363 0.12905858409378151 0.16351269883884226 0.16507212732401655 214 178 118 0.32491111218763996 13 2352 19 2576 1 2356 17 1834 2 1847 16 2535
9364 0.5074603275234546 0.20146038868155497 0.2749474677291705 198 156 62 0.26702888767094829 20 2832 19 2578 1 2361 17 1842 2 1851 16 2545
9365 0.3293855274710778 0.19170524269498368 0.22262139331163405 189 139 55 0.34124714478280721 13 2354 19 2582 1 2364 17 1840 2 1855 16 2542 15 2095
9366 0.14957872612322456 0.18682199604762706 0.16616174193659805 214 212 176 0.33540074775364531 20 3099 19 2586 18 2413 17 1844 15 1693 21 1950
9367 0.3794101905473159 0.22892300217733308 0.23462510351332688 218 201 144 0.10604459802143067 13 1948 19 2594 18 2426 1 2384 17 1859 2 1872 16 2557 20 2436
9368 0.38115305022507256 0.25604025547392784 0.23204071895490769 221 201 150 0.378666049045911 20 1876 19 2599 16 1622
9369 0.24159419299033233 0.29486635384592308 0.18620815209887248 214 198 173 0.13208889269813254 13 2399 19 2611 18 2438 1 2403 17 1875 16 2188 15 1733
9370 0.11798439272894251 0.29022978509228214 0.14958894815770973 199 159 98 0.75377373812932569 13 1989 19 2612 18 2439 1 1975 2 1887 16 2189 20 918 15 1199
9371 0.076420853747808076 0.32776516628421526 0.13395427910912266 228 218 217 0.65474522582704942 20 2897 19 2625 18 2452 1 2413 17 1883 2 1901 16 2580 15 1747 21 2013
9372 0.54480773880398636 0.36223320299844947 0.27403249894619891 153 3 5 0.16629097443416579 20 2485 19 2626 18 2453 1 2419 17 1887 2 1900
9373 0.27367570003376757 0.34747221262654959 0.19242441933284093 127 26 39 0.7349764568629672 13 2416 20 2493 19 2628 18 2455 13 2006 1 2416 17 1008 19 1602 18 776 2 1903 16 2221 16 2583 15 1219
9374 0.54895311008369529 0.37752186098735935 0.27452926135828237 199 130 70 0.77088332265570014 13 2414 19 2631 18 2460 18 2740 17 2180 2 1907 2 2199 16 2593 16 2830 20 2486 15 2137
9375 0.54990567763600795 0.37829632774995353 0.27345082660450587 199 130 70 0.52588141927084953 13 2415 19 2632 18 2461 18 2739 17 2179 2 1908 2 2198 16 2831
9376 0.041849573151081128 0.3463531650341195 0.11738022904224579 133 148 177 1.0317014398429143 20 2910 19 2634 16 1670
9377 0.32847694014584899 0.36750253257483911 0.20634166971899581 102 7 17 0.56806739138144446 13 2421 19 2635 1 2422 17 2178 2 1909 15 2133 20 2900
9378 0.70018252303006767 0.39975904452445316 0.31983713618912751 18 58 145 0.45934941304167637 20 2487 19 2640 18 2469 2 1913
9379 -0.089332413525061688 0.3495291942654708 0.08185411583719468 219 240 223 0.46004123973666344 13 2434 20 2917 19 2645 21 2038 18 2470 1 2699 17 1892 2 2204 16 2590 15 1761
9380 0.30386934016051542 0.4063740782573812 0.19703704002076955 213 211 211 0.38531405770861199 13 2436 19 2652 18 2480 1 2433 17 1903 2 1919 16 2607
9381 0.19817628365001128 0.42192680606660721 0.16205877437852184 200 58 96 0.29091453915446247 13 2446 19 2663 18 2491 1 2444 17 1910 2 1924 16 2251 15 1259
9382 0.31306424281171813 0.43199414793442303 0.19850800612720559 203 159 113 0.25493491656812522 20 2523 19 2666 18 2494 1 2447 17 1917 2 1926 16 2621
9383 0.054994792179994721 0.42606441567842435 0.11797478473475931 189 66 93 0.085487265653410097 13 2462 19 2674 18 2502 1 2454 2 1940
9384 0.036121088309988808 0.4260362328692508 0.11389475708325353 199 70 99 0.4199342094597367 20 2945 19 2679 18 2508 1 2455 17 1919 2 1941 16 2259 15 1788
9385 0.1398693941233497 0.44156301825411187 0.14406144991591313 210 227 218 0.18210854463246301 13 2464 19 2685 18 2513 1 2464 17 1927 2 1945 16 2624
9386 0.033637706149464 0.43927591228916535 0.11058775936937751 206 219 216 0.22334371312748263 13 2060 19 2688 18 2162 1 2466 2 1949
9387 0.11239727714727224 0.4555386333036609 0.13422007354827037 196 44 91 0.43856475703141323 20 2564 19 2691 18 2522 1 2473 17 1938
9388 0.057568461490028304 0.45083412250765359 0.11688326687882922 191 60 78 0.090657208798746239 13 2478 19 2693 18 2525 1 2475 17 1936 2 1956 16 2631
9389 0.066586723748045973 0.46130157450289871 0.11982769056544118 208 219 211 0.14878125125344688 13 2482 19 2701 18 2530 1 2481 17 1943 2 1962 16 2635 15 1810
9390 0.73778054918294744 0.55122559837537388 0.31895840750102306 77 0 0 0.25987208198520295 13 2480 19 2712 18 2538 1 2493 17 1958 2 1970 16 2643
9391 0.61286212709904675 0.54410577673024241 0.27929376275961543 95 0 0 0.35274104265047435 13 2483 19 2714 18 2539 1 2495 17 1957 2 1972 16 2642 15 2170
9393 -0.076057169097312749 0.51537206745433906 0.071712121169002052 140 63 57 0.48032939780905415 13 2491 20 2964 19 2720 18 2546 1 2097 17 1952 2 1578 16 2292 15 1821
9394 0.4778255700835351 -0.81755712227518795 0.37849515276370138 118 50 62 0.47197765884483822 20 2598 19 2725 18 2552 1 2501 17 1969 16 2650 15 1848
9395 0.46288854038759947 -0.80504678036334854 0.36708281907563062 63 31 43 0.70176088007423698 13 2501 19 2727 18 2554 1 2126 2 1988
9396 0.38343607531851537 -0.80317903827795312 0.34300238097111868 56 26 36 0.57746686856450158 13 2111 19 2728 17 1976 2 1990 16 2331 15 1385
9397 0.59196933013191577 -0.78273800013134764 0.40577222764432475 108 58 70 1.1262838064199137 13 2117 19 2731 18 2783 1 2877 20 3163 17 2371 2 1993 16 2981 15 2388
9398 0.48168250723528105 -0.74386928470315372 0.35082932618286161 103 28 42 0.53837729890469299 13 2128 19 2735 18 2558 17 1981 2 1998 16 2658
9399 0.48105349281681747 -0.74410240075535239 0.35216815143322283 103 28 42 0.71667391390735846 13 2127 19 2736 18 2559 1 2506 17 1982 2 1999 16 2659 15 1881
9400 -0.0087126202623709972 -0.7355198165878285 0.19359174564512172 116 18 25 0.66578886564864048 13 2124 19 2737 17 1991 2 2001
9401 0.76019840772067881 -0.69986011048739316 0.42937328847521872 121 71 76 0.27946513620973118 13 2135 20 2985 19 2739 21 2163 18 2562 1 2511 17 1986 2 2003 16 2656
9402 -0.013679999610200454 -0.65776069752197874 0.18628188252600836 152 41 30 0.79449541488348074 13 2515 19 2742 18 2566 1 2150 17 2000 16 2378
9403 0.73771165394427096 -0.61718327095816417 0.41414656429415087 209 211 211 0.60103087375561959 13 2522 19 2745 18 2570 1 2520 17 1998 2 2009 16 2669 15 2189
9404 0.74879862709942846 -0.60171580552015225 0.41486234001983713 64 11 24 0.67646222672902001 13 2525 20 3002 19 2746 21 1098 18 2226 1 2755 17 2236 2 2269 16 2672 15 2191
9405 0.25671598340475138 -0.57153621745358596 0.25892755422664149 207 209 170 0.61358688002848827 13 2530 19 2749 18 2575 1 2525 17 2008 2 2016 16 2675 15 2200
9406 0.44618165907617796 -0.50409894131908595 0.3179943871436251 190 201 152 0.63370546529446337 13 2537 19 2755 18 2586 1 2533 1 2762 17 2012 2 2275
9407 0.44633160984849174 -0.50385646883191648 0.31807691547794575 190 201 152 0.62150773251743729 13 2538 19 2756 1 2534 1 2763 17 2013 2 2276
9408 0.35352625399477361 -0.45241080597661776 0.28250241629113604 22 26 15 0.45618016007322593 13 2192 19 2762 18 2595 1 2540 17 2019 2 1687 16 2411
9409 0.012558918450741939 -0.43282486516435331 0.17608599566216315 119 102 49 0.55864730263124407 20 2681 19 2775 18 2273 1 2216 2 2042 16 2428
9410 0.32459614726389791 -0.41724192040201769 0.27073022561844506 35 46 28 0.45169896437194496 13 2558 19 2777 18 2274 1 2550 17 2255 2 2041 15 1498
9411 0.059299296270230291 -0.41237832751273468 0.18840265357714236 31 35 16 0.30058001860068922 20 3023 19 2778 18 2608 2 2290 16 2699 15 1965
9412 0.55763528252326389 -0.37659044502923439 0.33799144937870756 88 100 57 0.61652574960906181 13 2208 19 2779 1 2552 15 1947
9413 0.33888190956328457 -0.35740481499656629 0.26996065194268659 216 212 201 0.27982503231857792 13 2221 19 2783 18 2611 1 2556 17 2037 2 2054 16 2436 15 1968
9414 0.034509330073498622 -0.36281873772244549 0.17696024593763021 217 189 128 0.53260106296035337 13 2573 19 2784 18 2612 17 2040 2 2055 15 1547 21 1158
9415 0.10552519772915428 -0.34087311844024465 0.19678260064561492 223 225 212 0.31173347625076542 13 2579 19 2787 18 2614 1 2559 17 2045 2 2058 16 2444
9416 0.17624147085491199 -0.33600354813391053 0.21601759431847062 220 221 205 1.0023834410778925 13 2775 19 2789 1 2897 17 2043 2 2298 16 2708 15 2240
9418 0.57287977381813115 -0.27971846740366413 0.33624782867869896 217 222 215 0.49893392633761252 13 2238 19 2800 18 2620 1 2566 17 1747 2 2068 16 2447 15 1551
9419 0.79506945683508923 -0.26748533011214976 0.40292704458373452 126 11 13 0.35558546158890841 13 2239 20 2298 19 2802 18 2621 1 2565 2 2069
9420 0.65835656808392995 -0.23958912715292635 0.35852487060044436 22 35 7 0.52979374138846136 13 2245 19 2807 18 2313 16 2455
9421 0.020518620651263121 -0.18960677718507821 0.15926343897725764 80 95 49 0.35280683247750205 13 2601 19 2818 18 2640 1 2586 17 2070 2 2091
9422 0.020518620651263121 -0.18960677718507821 0.15926343897725764 80 95 49 0.35280683247750205 13 2602 19 2819 18 2641 1 2587 17 2071 2 2092
9423 0.53941823805772671 -0.16233044788209849 0.31398969192456283 80 95 49 0.37491683754694538 13 2268 19 2820 18 2642 1 2276 17 2072 2 1758 16 2475
9424 0.56893600323608884 -0.11702355134494571 0.32158082716336267 37 48 11 0.3627962825504949 13 2281 19 2825 18 2650 1 2599 17 2280 2 2099 16 2734
9425 0.024232795228786026 -0.1424780185306736 0.15582801172235305 217 221 207 0.78289235492791676 13 2607 20 2754 19 2827 21 1260 18 2649 1 2600 17 2077 2 2317 16 1446
9427 0.3248391757990266 -0.088020483630767712 0.23793892609770179 225 224 208 0.78975532243706015 19 2837 2 1789 1 2301 13 2298
9428 0.075295040398290297 -0.00039322690417848468 0.16300767377069725 55 66 36 0.28629398983595805 13 2631 19 2859 1 2633 2 2133 16 2772 15 2300
9429 -0.024823952305850515 0.033823885024052681 0.12514096969019262 223 207 158 0.52845097969730748 20 3082 19 2865 1 2637 17 2117 16 2513
9430 0.8002306219955162 0.15940661272097439 0.36690028918686207 74 2 41 1.4164050900271521 13 2641 19 2866 2 2338
9431 0.79855777923730042 0.17857847464554494 0.36810148401219428 98 12 34 0.27901355806172518 20 2403 19 2870 1 2648
9432 0.76816367082931492 0.17869620100524747 0.35849798899180663 34 0 1 0.24288379630216744 13 2340 19 2871 18 2699 17 2132 2 2148
9433 0.22074174587310469 0.19989082838607183 0.18824150337246359 215 210 170 0.64070615952907417 13 2359 19 2881 18 2418 1 2661 17 2142 2 2160 16 2549 20 2842 15 1694
9434 0.63592040234031832 0.32747014179941475 0.30490498067667154 210 209 204 0.47207090134932606 13 2389 19 2892 18 2884 1 2678 17 2337 2 2176 16 2815 15 2118
9435 0.35100562681366876 0.31175936613677363 0.21965029386366225 197 110 104 0.59850929964361754 13 2684 19 2893 18 2723 1 2680 17 2160 2 2179 16 2813 15 2346 21 1991
9436 0.42503487151816022 0.34900914492763757 0.23845272843186943 195 140 84 0.28789969995057546 20 2888 19 2905 18 2734 1 2688 17 2172 2 2192 16 2823 15 2127
9437 0.42503487151816022 0.34900914492763757 0.23845272843186943 195 140 84 0.28789969995057546 20 2887 19 2906 18 2733 1 2689 17 2171 2 2193 16 2822 15 2126
9438 0.066715596205378674 0.33952239454988609 0.1284685383895231 67 62 92 0.32309298730342673 13 2696 19 2910 18 2737 1 2693 17 2175 2 2197 16 2584 15 1752
9439 0.06753125723989209 0.43743898537095255 0.12229272001194885 204 205 200 0.16959757306109871 13 2723 19 2931 18 2760 1 2719 17 2202 2 2223
9440 0.15193028447645462 0.44998120048328927 0.1453739106360884 202 222 219 0.32674533308639336 13 2720 19 2933 18 2763 1 2723 17 2207 2 2225 16 2845 15 2156
9441 0.10154430041186854 0.44564363812629687 0.13145318519057847 213 213 213 0.29116891480742141 13 2722 19 2934 18 2764 1 2724 17 2204 2 2228 16 2844
9442 0.0095843909637608332 0.44211645048836379 0.10072302822009987 212 223 214 0.87682524679664309 13 2726 20 3151 19 2936 21 2390 18 2518 1 2468 17 2205 2 2229 16 2263 15 1797
9443 0.1371709190890488 0.4556766543476411 0.1414829115166007 197 59 69 0.48206093561547636 13 2473 19 2938 18 2520 1 2726 16 2633 15 1285
9444 0.64930933985079953 -0.82375621629978035 0.4383525565684977 78 21 36 0.68153016667425392 13 2498 20 2976 19 2952 21 2131 18 2781 1 2499 19 2298 17 1966 2 1980 15 1841
9445 0.67620250845585383 -0.80925910746743024 0.43609309984180478 120 44 48 2.0016297895734434 13 2112 20 2610 19 2955 18 2782 1 2739 17 2217 2 1984 16 2646 15 1352 17 1617
9446 0.63410202635073509 -0.77229873918436054 0.41074097734488324 128 67 76 0.25327672362723247 13 2741 19 2959 2 2397 16 2858 15 2390
9447 0.025364410398544666 -0.75019103685069422 0.20852017375530796 57 2 0 0.68664405818951468 13 2743 20 2977 19 2961 21 2130 18 2785 1 2748 17 2224 2 2254 16 2666
9448 0.79483380595128295 -0.62617293760655424 0.43429070258073887 207 213 213 0.39249986070624493 13 2748 19 2968 18 2796 1 2752 17 2231 2 2264
9449 0.81320904123413795 -0.60911836942622444 0.42996671851643475 113 29 43 0.98449779569552653 20 3001 19 2970 18 2798 17 2234 2 2265 16 2865
9450 -0.034437213293700197 -0.50597340667048551 0.16513167129462858 121 7 15 0.41220392961051516 13 2758 19 2979 18 2808 1 2767 17 2242 2 2277 16 2410 15 1489
9451 0.26775650468936241 -0.49522094137052242 0.25713902519901893 193 203 166 0.15375801299153638 13 2542 19 2980 18 2806 1 2764
9452 0.26775650468936241 -0.49522094137052242 0.25713902519901893 193 203 166 0.15375801299153638 13 2543 19 2981 18 2807 1 2765
9453 0.38363144529386178 -0.37654090397405543 0.28544526365506545 34 44 32 0.38228519450206694 13 2772 19 2993 18 2825 1 2785 17 2257 2 2292 16 2890
9454 -0.0085570519545589037 -0.21801494580764685 0.15202656141603343 37 24 16 0.46625381302373431 13 2785 20 3053 21 1857 19 3004 18 2840 1 2580 17 2277 2 2311 16 2727 15 2010
9455 -0.037144014089769119 -0.12291162573353577 0.1352268817959385 21 18 4 0.34926346856836465 13 2796 20 3233 19 3013 18 2846 1 2806 17 2283 2 2439 16 2750 15 2269
9456 0.19070098280360881 -0.10658375599341791 0.20369354061325423 79 86 45 0.3484412755432138 20 3065 19 3014 18 2659 1 2608 17 2085 2 2323 16 2749
9457 0.19070098280360881 -0.10658375599341791 0.20369354061325423 79 86 45 0.3484412755432138 20 3066 19 3015 18 2660 1 2609 17 2084 2 2324 16 2748
9458 0.11596685093014883 0.17674557464922486 0.1578046073147793 178 50 47 0.10727165189582537 13 2819 19 3032 18 2864 1 2831 17 2308 2 2348 16 2941
9459 0.064318892132595396 0.18001832431178763 0.14545384949160206 184 89 57 0.95916749056536244 13 2820 19 3037 18 2970 19 3140 15 2475
9460 0.49763499085755336 0.21756478672312879 0.27033872816204513 207 160 105 0.46376235890285739 20 3097 19 3038 18 2867 1 2836 17 2313 16 2943
9461 0.59863133782384248 0.27417483785130048 0.29836219659011903 202 180 85 0.32868539603832658 13 2670 19 3047 18 2876 17 2326 16 2949
9462 0.15285317325319317 0.25286680266039607 0.16352612833856062 214 213 209 0.20177933935353023 13 2832 20 3269 19 3049 18 2879 1 2844 17 2325 2 2361 16 2948 15 2482
9463 0.46966334150437644 0.35390458500511668 0.25133074775358671 172 49 26 0.25698444288543371 13 2689 19 3057 18 2889 1 2853 17 2343 2 2370 16 2959 15 2490
9464 0.50314134761695939 0.40904867797581923 0.25711367248197398 108 0 3 0.24916883149177599 13 2850 19 3064 18 2744 1 2860 17 2350 2 2377 16 2965 15 2367
9465 0.50314134761695939 0.40904867797581923 0.25711367248197398 108 0 3 0.24916883149177599 13 2849 19 3065 18 2745 1 2861 17 2351 2 2378 16 2964 15 2366
9466 0.4052639548785642 0.43679279891906286 0.22478829544954865 204 198 162 0.22299055294437728 13 2855 19 3069 18 2894 17 2357 2 2383 16 2841
9467 0.34756402250054613 0.44705061751542702 0.20738585498411805 196 193 176 0.13920411623500137 13 2713 19 3073 18 2898 1 2866 17 2358 2 2387 16 2968
9468 0.70720335209925689 0.5318314858033284 0.3102868501900849 156 135 42 0.21223903335131564 13 2725 19 3078 18 2903 1 2872 17 2363 2 2391 16 2971
9469 -0.047013119783810439 -0.75285833640493405 0.18931671124741406 56 2 2 1.1612221200433452 13 2742 19 3082 20 3162 1 2509 20 2615 2 2253
9470 0.55110622539645426 -0.68486376409799921 0.36102292979343287 91 25 35 1.2922114867518213 20 2986 19 3088 18 2910 17 2225 15 2183
9471 0.33111343009440952 -0.54177376214233242 0.27969088093146932 18 79 36 0.60433143900412978 13 2884 19 3089 18 2916 1 2968 17 2487 2 2494 16 2993 15 2529
9472 0.14789217669216143 -0.41491295419570734 0.21452551820679922 211 209 180 0.63673280605352156 13 2900 19 3099 18 2926 1 2889 17 2391 2 2414 16 2889 15 2230
9473 0.73286949044649341 -0.18078102768324267 0.37729505526677898 210 178 118 0.48948416428514741 13 2786 19 3110 18 2938 1 2906 17 2405 2 2429 15 2439
9474 0.40563857367163164 -0.19231836914547831 0.27576738921480809 67 75 38 0.47166903168627483 20 3220 19 3111 18 2939 1 2907 17 2406 2 2430 16 3019
9475 0.1122608951870053 -0.03983688663889725 0.17467060150085939 75 86 47 0.70833464677911484 20 3237 19 3125 18 2959 1 3006 17 2431 2 2542 16 2922 15 2283
9476 0.1609093621912642 -0.0060237648242620649 0.18637440542142947 211 218 118 0.74362419956118431 13 2935 19 3126 18 2961 1 2922 17 2432 2 2450 16 3027 15 2462 21 2546
9478 0.30372948508638353 0.1684569327343412 0.21603804283828715 210 197 138 0.41308722615758814 13 2945 19 3138 18 2969 1 2934 17 2440 16 3032 15 2575
9479 -0.035709369094170454 0.15776556719674881 0.11219079972527099 212 198 155 0.39517182403317141 13 3043 19 3139 18 3048 1 2935 17 2441 2 2460 16 3033
9480 0.1798549201289158 0.20633133113192467 0.17499391560563315 213 195 156 0.61600028194831691 20 3261 19 3141 18 2971 1 2936 17 2442 2 2461 16 3035 15 2476
9481 0.19369129703520938 0.2767965591265833 0.17319727712475635 150 38 53 0.18469989036713608 13 2957 19 3148 17 2453
9482 0.21495610464866211 0.29817563123500107 0.17832781066374087 208 186 128 0.43648365497935177 13 2963 19 3151 18 2983 1 2947 17 2457 2 2470
9483 0.20803507360071496 0.32379349355375453 0.1774241002554095 162 43 47 0.39632178632070464 13 2844 19 3154 1 2949 17 2459 16 3044
9484 0.26256958845850104 0.3439976132245931 0.18931198412689915 147 35 49 1.0799121797959605 13 2846 19 3157 18 2986 1 2952 2 2475 16 2958 15 2354 21 2011 14 947
9485 0.52487789923410277 0.37074588998452868 0.26800373362472341 123 0 15 0.24661487662094586 20 3279 19 3158 18 2987 1 2954 17 2462 2 2476 16 3047 15 2491
9486 0.045305359526223395 0.41795847196934832 0.11774175713480076 216 168 166 0.35014276430421676 13 2974 19 3163 18 2989 1 2959 17 2466 2 2482 16 2966 20 3295
9487 0.60054513902876239 0.52759834322077837 0.26699125693496462 182 162 62 0.44022153628216371 13 2976 19 3165 18 2992 1 2962 17 2473 2 2484
9488 0.73872270010222196 -0.66986480699105377 0.42060641341110983 97 18 25 1.3505508373513311 13 2987 20 3306 19 3173 21 2602 18 2996 1 3019 17 2533 2 2488 16 3110 15 2647
9489 0.27558847428141714 -0.49225195548051648 0.26130686589352392 162 187 119 0.20425101854814579 13 2996 19 3179 18 3002 1 2972 17 2490 2 2497
9490 0.14851231755286692 -0.43662587772354811 0.22141683501487336 212 206 182 0.6329005816641029 13 2998 19 3183 18 3004 1 2980 17 2495 2 2506
9491 0.4995217132351325 -0.42023070693462244 0.32503461774105963 208 207 192 0.3299389386502839 13 2899 19 3184 18 3008 1 2979 17 2491 2 2410 16 3004
9492 0.70450997020531114 -0.39051805411895563 0.3853263011742305 202 204 183 0.85400046708905963 13 2901 19 3186 18 3009 1 2981 17 2496 2 2509 16 3068
9493 0.20505945949906923 -0.37722030205739759 0.22872386450879373 196 195 167 1.6368106563288876 13 2902 19 3190 18 3015 1 2986 17 2501 2 2514 16 3011 15 2431
9494 0.08648290641992179 -0.38243372509936258 0.19359843439494945 212 209 196 1.1292878366762926 13 3007 20 3326 19 3191 21 2620 18 3016 1 2984 17 2502 2 2515 16 3012 15 2433
9495 0.16310409636380735 -0.18246627872231258 0.20296025213683994 212 219 102 0.23277509544391858 13 3026 19 3202 18 3030 1 2995 17 2509 2 2528
9496 0.16310409636380735 -0.18246627872231258 0.20296025213683994 212 219 102 0.23277509544391858 13 3025 19 3203 18 3031 1 2994 17 2508 2 2529
9498 0.19366848419080676 -0.048719708433965045 0.21340927079809474 214 219 103 0.51410128227544405 13 3031 19 3212 17 2429 2 2540
9499 0.13161610786261296 0.024206605729048623 0.17858152868856292 125 41 26 0.54447460574659312 13 3037 19 3217 18 3045 1 3008 17 2522 2 2545
9500 0.011184584946247057 0.22199349998655199 0.12174820403714853 205 195 155 0.23666675354173558 13 3046 19 3223 1 2942 17 2449 2 2551 16 3039 15 2581
9501 0.46080122339680496 0.26561731293710411 0.25496179560756566 167 2 24 0.411321594546951 13 2952 19 3224 18 3050 1 3013 17 2527 2 2552 16 3102 20 3374 15 2582
9502 0.24596001642407775 0.43223166470548646 0.17731001314386929 177 132 135 0.99147248018801903 13 3052 19 3227 18 3053 1 3018 17 2531 2 2556 16 3107
9503 0.7148324162735501 -0.63138994299145379 0.40973347957474326 138 125 124 0.39715031247660088 13 3061 19 3231 18 3056 1 3056 17 2534 2 2558 16 3112 15 2648
9504 0.39128717400545854 -0.41626245851461713 0.29055020796380371 207 205 190 0.28671739441147681 13 3000 19 3233 18 3058 1 3021 17 2537 2 2561
9505 0.24306954161101632 -0.40913408757635517 0.24353217492165974 92 108 69 0.54313116155416907 13 3066 19 3234 18 3059 1 3022 17 2538 2 2562
9506 0.24306954161101632 -0.40913408757635517 0.24353217492165974 92 108 69 0.54313116155416907 13 3065 19 3235 18 3060 1 3023 17 2539 2 2563
9507 0.34913544752140252 -0.21828254068472153 0.26288883336649488 215 219 115 0.95347670724649991 20 3414 19 3244 18 3069 1 3034 17 2549 2 2572
9508 0.51986078209060271 -0.20597401619425065 0.31254049490704616 210 216 94 0.35952955178650803 13 3020 19 3245 18 3070 1 3033 2 2525 16 3082
9510 0.71587365718936835 -0.082285443550976209 0.36386017503364299 208 214 57 0.70341187326940002 20 3420 19 3249 18 3074 2 2577 16 3127 15 2661
9511 0.36128539772263807 -0.045271510501538256 0.25127210443872638 211 219 110 0.47894579611376997 20 3426 19 3250 18 3077 1 3036 17 2556 2 2579
9512 0.42191963544326899 -0.041446946948924292 0.26912624645362698 211 217 96 1.0359552961366312 13 3081 19 3251 18 3078 17 2597 18 3113 19 3289 16 3131
9513 0.25681958817146944 0.36789930068382881 0.18425156784654428 176 70 62 0.46135204600614294 20 3445 19 3261 1 3044 17 2567 2 2586
9514 0.62518932745604527 -0.82094060997188922 0.42566766945079948 106 39 40 0.35749661682682998 13 3101 20 3506 19 3269 18 3096 1 3053 17 2576 2 2596 16 3151 15 2679
9515 0.78586732248154834 -0.65375081678801028 0.43003782997984807 210 212 211 0.62170917993254149 13 3060 20 3399 19 3273 18 3098 1 3054 17 2582 2 2599
9516 0.78685703060746748 -0.6541268447530777 0.42914999125215669 210 212 211 0.61548280228856256 13 3059 20 3398 19 3274 18 3099 1 3055 2 2600
9517 0.39029220861093045 -0.61580357260131902 0.30606479304386724 210 216 163 1.257388161820933 13 3062 19 3275 18 3100 1 3057 17 2583 2 2601 16 3114
9518 0.3054507732029656 -0.28492425409845312 0.25360156977149506 115 129 78 0.40884894133376337 20 3472 19 3277 18 3102 1 3060 17 2586 2 2603 16 3122 15 2657
9519 0.60274528178473807 -0.12178190901906211 0.32438401415998325 209 215 67 1.3702027138376294 13 3072 19 3282 18 3106 1 3068
9520 0.22094117046311071 -0.12161255025186456 0.21663827546760245 215 219 109 0.35513617796713293 13 3115 19 3287 18 3110 1 3071 17 2595 2 2611 16 3173 15 2663
9521 0.15929226089115761 -0.04415200986252088 0.18991162987566695 212 217 117 0.87264504167882806 20 3485 19 3291 18 3114 1 3075 17 2598 2 2615 16 3134
9522 0.59476109607104455 -0.0052930507552055445 0.32024621800737541 211 218 89 0.71625915573272514 13 3118 19 3292 18 3116 1 3077 17 2599 2 2616 16 3175
9523 0.52370389459118427 0.19366398049363792 0.28077686378912559 218 192 135 0.49313624400612915 13 3120 19 3295 18 3119 1 3082 17 2603 2 2619 16 3178
9524 0.51138172098674406 0.45122059446299323 0.25976337055274951 64 77 124 0.92050273637206526 13 3124 19 3299 18 3124 1 3087 17 2608 2 2624 16 3185
9525 -0.067140728469626099 -0.89884230662222619 0.22994351594854334 188 192 191 1.062176073420998 13 3130 20 3527 19 3301 18 3126 1 3090 17 2574 2 2626 16 3153
9526 -0.067140728469626099 -0.89884230662222619 0.22994351594854334 188 192 191 1.062176073420998 13 3129 20 3526 19 3302 18 3127 1 3091 17 2575 2 2627 16 3154
9527 0.79896458914878943 -0.86715190337911008 0.47919559617648699 188 190 187 1.063954831483291 13 3100 20 3505 21 2826 19 3303 18 3129 1 3089 17 2611 2 2628 16 3150
9528 0.79896458914878943 -0.86715190337911008 0.47919559617648699 188 190 187 1.063954831483291 13 3099 20 3504 21 2825 19 3304 18 3128 1 3088 17 2610 2 2629 16 3149
9529 0.5205085762588143 -0.39219680009789254 0.32765260874277946 135 131 120 0.32432588144093649 13 3108 19 3306 18 3132 1 3094 17 2618 2 2633 16 3164 15 2688
9530 0.17468888153293904 -0.30526843879866239 0.21414572917101593 215 213 99 0.26948413838157814 13 3110 19 3307 18 3133 1 3095 17 2619 2 2634 16 3165
9531 0.47713030397458417 -0.25972266661512183 0.30376839958718027 102 114 63 0.55076023750047798 13 3138 19 3308 18 3134 1 3096 17 2620 2 2635 16 3190
9532 0.09699382270987339 -0.27037219487179825 0.18854883146864426 216 220 99 0.40888585528599164 13 3139 19 3311 18 3136 1 3098 17 2621 2 2637 16 3168
9533 0.14070786045621841 -0.22671686453491144 0.19682508006096333 121 132 76 0.66073841525934551 20 3517 19 3312 18 3137 1 3099 17 2622 16 3169
9534 0.11919777234911519 0.44066483903926323 0.13646813884127795 194 138 161 0.24552317656539971 13 3151 19 3325 18 3148 1 3111 17 2634 2 2647
9535 0.78532699583084375 -0.17827365996005903 0.39021031044282983 86 4 19 1.0369084532120754 13 3157 19 3339 18 3164 1 3128 2 2660
9536 0.74766168420415247 -0.75937451747997498 0.43900525516893529 56 25 30 0.90017668390461858 13 3165 19 3344 18 3168 1 3131 2 2664
9537 0.35762225673996106 -0.76018818484951078 0.32963563393143758 58 28 36 0.53795489425148257 13 3171 19 3345 18 3169 1 3132 17 2657 2 2665 16 3222
9538 0.35314814611902667 0.2045105530287892 0.22071798634715334 218 202 155 0.82034152231862578 13 3187 19 3357 18 3180 1 3142 17 2671 2 2678 16 3233 15 2738
9539 0.3372383287412154 -0.59799744970901791 0.28869902246887597 22 60 38 0.57874396104511228 20 2170 13 2153 19 2747 21 1090 20 2647 18 2572 1 2524 17 2005 2 1646 16 2381 15 1905
9540 0.042213676486066325 0.51288266250842096 0.1072577080332564 83 27 31 0.36950875093692304 13 2489 19 2718 20 2572 19 2278 21 1697 18 1683 1 2094 17 1590 2 1975 16 2291 15 1820
9541 0.48536366207215664 0.4946092885192922 0.23775975134016603 0 0 0 0.20099782841722449 20 1092 21 836
9542 0.63377348820141977 -0.84061419178915864 0.43585328894612707 158 175 83 0.3484831752697633 13 53 19 960 18 992 1 838 16 1098 15 12
9544 0.086180722370232721 -0.86615213428647164 0.26883908585364896 171 166 83 0.27515344442504008 13 10 18 28 1 34 17 36
9545 0.065623776994658184 -0.86768791263945022 0.26092051935851029 158 147 89 0.37295858289483164 20 18 18 29 1 25 17 37
9546 0.096651879413053671 -0.86408926239210593 0.27340445663178792 160 164 78 0.22427206000251448 20 22 18 33
9547 0.13925613793815944 -0.86336695785489326 0.2850816245254813 168 169 93 0.2322486623239377 13 16 18 44 1 32 17 31 20 27
9548 0.51520771494833539 -0.85313617083360072 0.40396314169124314 99 99 76 0.20285484429918652 13 38 18 52 1 796 19 921 16 15
9549 0.18803405559311259 -0.85245258118673861 0.29747578283659382 141 146 64 0.26648538281596673 19 42 20 44 18 79 17 41 16 71
9550 0.5013943463962216 -0.83719256082087523 0.39438540851852022 35 31 20 0.20984264069768943 13 52 18 97 1 852
