# 3D point list with one line of data per point:
#   POINT3D_ID, X, Y, Z, R, G, B, ERROR, TRACK[] as (IMAGE_ID, POINT2D_IDX)
# Number of points: 369, mean track length: 5.6247313928501663
4034 -0.27212418245741693 -0.078904721482581708 0.44990072069476722 238 242 245 0.10005370906461686 4 3851 5 3434 8 3624
4036 0.17843200513187579 -0.026263543073335276 0.38905148373854365 155 155 89 0.25159547031114921 4 3860 6 3542 5 3917 8 3644 7 4215 9 3934
4037 0.10357514935753372 0.0036236662997231675 0.39787747029492815 166 170 93 0.50028336402810625 4 4328 6 3550 5 3458 3 3690 8 3652
4038 0.10194135175143738 0.0036386653685181319 0.39449403381716003 166 170 93 0.72905845269247704 4 4329 6 3551 5 3459 3 3691 10 3955 8 3653
4039 -0.55808759524040541 0.034664437878754742 0.48135006290659882 160 164 163 0.11498503419150397 6 3555 10 610 8 3655 9 2628
4040 -0.40825908115312598 0.034083892702995826 0.46198603547403749 98 107 125 0.13337806476232886 6 3559 5 3468 3 3012 27 2455 3 3700 8 3659
4041 0.23712049141449509 0.051109282476367868 0.37683227661208446 151 162 170 0.62402881571135327 4 3179 3 3029 6 2878 10 2650 27 1611 11 2501 8 3667
4042 0.21471034919868742 0.066490628142852101 0.37808849852537685 189 217 87 0.45591137483929034 4 3883 6 3570 3 3034 10 3510 8 3674 7 3795 9 3951
4043 0.11847505373415231 0.10159688170742906 0.38891245479458059 82 123 143 0.16432396895475604 4 3219 6 3581 8 3690 7 3807 9 3467
4044 -0.1823244497256834 0.24751278012145203 0.42139619335696227 245 246 248 0.35929026161628352 4 3950 3 3776 27 3065 8 3724 9 3535
4045 0.071443669756397613 0.25800010665221629 0.38809261653697608 193 195 194 0.54165956849818075 4 3954 6 3652 5 2948 5 3558 3 3152 10 3606 27 2573 11 2640 8 3741 7 3249 9 3554
4046 0.074062241123469943 0.30363014099767088 0.38428037313994062 153 101 77 0.33921422963414982 4 3383 3 3205 10 2829 27 780 11 1869 8 3775
4050 0.19151336141091407 0.36054693824446471 0.36603771156596038 253 253 251 0.35619899780731945 6 3721 3 3242 8 3813 9 3621
4051 -0.51747286297224415 0.41588518072932384 0.45648969398732508 223 203 178 0.27071823272361123 6 3732 5 3638 3 3853 27 2653 8 3822 9 2907
4052 0.2998446504092715 0.40691787540094054 0.36039038693874914 229 168 114 1.1320360480762373 6 3160 5 3074 8 3825 9 2931
4053 0.36761598104057458 0.4743115834477295 0.3370786201156214 35 116 65 0.50798840649124144 4 1317 6 3209 5 3116 8 3870
4054 -0.0087853853379639274 -0.90975765184447721 0.42118266106814317 138 92 67 0.52863275228689133 6 3783 5 3690 3 3344 27 2037 10 2959 8 3877 9 3680
4055 0.10662478928820475 -0.89033411834524301 0.39982634427390534 176 132 94 0.73801917158556118 6 3785 5 3692 8 3879 9 4084
4056 -0.35306980934523691 -0.8796191404482524 0.48229414784796537 153 130 109 0.81799802804480437 6 3786 5 3691 27 3495 8 3883
4057 -0.34962211101260365 -0.8566360656133859 0.46715105244499605 112 47 58 0.2871234778573924 6 3789 10 2976 8 3886
4058 0.33803319305540569 -0.75551605317456039 0.39342722614605097 228 237 233 0.13002678204711007 6 3840 5 3736 8 3922
4059 0.028600354693444408 -0.64650433116085237 0.43851705745374059 218 198 73 0.4746684556893741 4 3629 6 3315 10 2275 8 3943
4060 -0.055654120731604681 -0.63341865597055191 0.44958147706623813 247 247 247 0.34185899190418656 4 3631 6 3856 5 3749 3 3424 8 3945 9 3097
4061 0.32846388407356819 -0.26878257764948432 0.37924581342236097 244 233 187 0.92791380653696731 4 4247 6 3958 5 3848 3 3579 10 3848 11 3004 8 4054 9 3865
4062 -0.22374995511478057 -0.26100900692625267 0.45263891796983641 178 169 175 0.2558558168297449 4 4242 5 3846 3 3568 10 3261 27 2902 8 4056 9 3872
4063 -0.4198225324856722 -0.19924750122329266 0.47419016098390449 209 31 57 0.32145836403132394 4 4258 3 4059 8 4075
4064 0.25270187169815639 0.10049660039055136 0.37134931518075809 189 192 195 0.31966354333229147 4 3897 6 3582 5 3494 3 3060 8 4159 9 3468
4065 0.1418911646944071 0.11137181333860582 0.38439730064352079 174 179 98 0.57422198823002224 4 3900 6 3587 8 4161 9 4289
4066 0.34759027231274942 0.15327318731658457 0.35908681235979334 32 117 78 0.23577718068423295 4 4382 6 4067 5 3522 8 4172 7 3827
4067 -0.054023383194945443 0.2695144590348999 0.40392545936861024 248 248 250 0.35353571855518001 6 3664 5 3983 3 3789 10 3605 8 4192 9 4009
4068 -0.012404810671942039 0.31293983301117811 0.39533095886681585 237 245 192 0.7090389118365612 4 3998 10 2827 11 1867 8 4209
4070 0.026071198768079007 0.33491040330274818 0.38974473550807087 131 105 90 0.24023785062107475 4 4430 3 4206 11 2675 10 3636 12 498 8 4219 9 4034
4071 -0.22593626304955139 0.4004603080684066 0.42044418402028932 234 235 240 0.77762042900033246 4 4448 6 4119 5 4322 6 4392 3 4525 10 4044 8 4226 9 4335
4073 -0.078911314805927585 -0.76343011788126636 0.44423569748923292 116 58 73 0.7344223712102419 4 4510 6 4174 5 4081 3 4279 10 3721 8 4287 9 4096
4074 -0.11681871837736012 -0.7559669961528459 0.450616654670973 83 40 47 0.17457196622966251 4 4511 6 4176 5 4084 3 3926 10 3005 27 2731 11 2135 8 4292 9 3726
4075 0.29545648841528682 -0.45534533274793237 0.39838772522543137 242 243 185 0.24494058935898419 4 4592 6 4241 8 4353
4076 -0.4333702069521353 -0.38961009012081022 0.48502115052882427 25 129 64 0.48267424864646408 6 3931 5 3814 8 4357 9 3837
4080 -0.1988999011036196 0.067983912285610376 0.42997997996882192 175 210 82 0.16147765742599116 4 4705 5 4247 8 4430 9 4274
4081 -0.093418102794275204 0.072096758806962202 0.4167799287820923 21 127 59 0.2644591976620958 4 4347 5 3935 3 3713 8 4433
4083 -0.12358468784946132 0.17371832724688771 0.41714437933001464 197 90 54 0.28496671597597439 4 4730 5 4270 3 4170 10 4007 27 3404 8 4456 9 4305
4084 -0.569028742314721 0.28283222933387764 0.4729159382152322 240 240 238 0.20538774220261202 6 4362 10 4015 8 4468 9 4314
4085 0.15199891905948842 0.3015381535816074 0.37479719542431383 206 126 92 0.43291031144856534 4 4417 6 4094 5 3997 3 3809 10 4030 11 3378 8 4475 7 3890 9 4022
4086 0.025608768290824452 0.39836837773767703 0.3853104216166266 242 246 244 0.24096953952361089 6 4397 5 4312 8 4499
4087 -0.43561646221190875 0.43765282435946201 0.44567352937225707 219 225 180 0.32917584472538819 4 4782 3 4541 27 3465 8 4500 9 4050
4088 -0.43561646221190875 0.43765282435946201 0.44567352937225707 219 225 180 0.32917584472538819 4 4783 3 4542 27 3466 8 4501 9 4051
4089 0.2388346295278288 0.41688682810323435 0.35716545467647592 73 95 38 0.40200768229884692 4 4767 6 4403 5 4325 3 4523 10 4288 8 4506 9 4349
4091 0.063897048226997766 -0.60189410398100296 0.43260725571174297 229 134 88 0.40236405911614498 6 4461 5 4379 8 4559
4092 0.063897048226997766 -0.60189410398100296 0.43260725571174297 229 134 88 0.40236405911614498 6 4462 5 4380 8 4560
4094 0.17384916176874271 -0.27389220227335376 0.39987162077651883 250 238 189 1.1454835439820743 4 4621 6 4495 5 4180 10 4168 27 3313 11 3827 8 4596 9 4439
4095 0.30133030705221397 -0.25553051554885176 0.38309711125383672 243 236 184 0.42468332129456288 4 4863 6 4497 5 4424 3 4390 10 4357 11 3829 8 4599 9 4442
4096 0.10507280294254066 -0.089786091659980638 0.40118071076109713 44 132 56 0.22099847229162911 4 4884 3 4636 10 4376 27 3614 11 3851 8 4616 9 4464
4097 0.10507280294254066 -0.089786091659980638 0.40118071076109713 44 132 56 0.22099847229162911 4 4885 3 4637 10 4377 27 3613 11 3850 8 4617 9 4463
4098 0.024534086495635932 0.059312544099579326 0.4008879903634619 246 236 187 0.94975220660342463 4 4702 3 4449 8 4646
4099 -0.13040900559455976 0.15544181690303646 0.419556642557946 246 245 195 0.95601891104427239 4 4723 3 4471 10 4242 27 3648 11 3895 8 4662 9 4297
4100 -0.56936876552762716 0.38480575666003408 0.46962875585037372 166 193 60 1.61974269312425 6 4568 10 4258 11 3729 8 4680 9 4331
4102 -0.010190912900783319 0.39733123782102697 0.39301093527521952 241 245 242 0.86949107418419636 6 4569 3 4517 27 3450 8 4682 9 4516
4105 -0.56523400418758596 0.57831133931179302 0.45897440823172386 22 122 49 0.72956476834687023 6 4585 10 4074 8 4700 9 4371
4106 0.17961944068933089 -0.5963736600856504 0.4179509942577373 250 246 247 0.7730857623430617 4 4986 6 4598 5 4542 10 4330 8 4713 9 4546
4107 -0.3379604240451573 -0.39010471574204653 0.47119392957032402 228 191 141 0.95493272377793337 6 4612 5 4551 10 4465 27 3874 8 4721
4108 -0.37994704426464565 -0.38022045204386296 0.48320192728143169 236 202 152 0.80491352748772305 4 4999 5 4553 3 4730 27 3745 8 4722
4109 -0.39520199144236257 0.072547280616441584 0.45525228944141133 235 173 200 0.66995524361187209 4 5103 5 4648 8 4823 9 4658
4110 0.16719192946796413 -0.55262656789576903 0.41763930720188874 245 248 247 0.38599486939660776 4 5177 6 4782 5 4717 3 4849 8 4895
4111 0.29630149691086383 0.30818098928862947 0.35794143562228076 125 63 89 0.56897912020346408 4 5200 5 4735 8 4944
4112 -0.31317222042916681 0.32308754175594451 0.43431830743635086 106 106 100 0.55348384609308932 6 967 4 2466 6 2093 5 902 6 3087 3 2283 8 2140 7 1069 9 1892
4113 0.08801124523330163 0.3029457007130445 0.38334425105472281 245 249 199 0.16800385446787144 6 3692 4 3379 5 3000 3 2242 10 1987 27 779 11 1872 8 3137 8 3776 9 2832
4114 0.088023076938835029 0.30286472308864876 0.38337189320908993 245 249 199 0.17016217970223629 6 3693 4 3380 5 2999 3 2241 10 1988 8 3136 8 3777 9 2831
4115 -0.034227152808382288 0.43999974091554611 0.39058984911224109 60 93 103 0.45061122336951787 4 3483 6 3183 6 3744 5 3646 8 3833 7 3382 7 3937 9 4067
4116 -0.49527461108895693 0.067167393544956128 0.4701875434869679 162 195 93 0.83918969437216573 4 3881 6 2881 4 3187 5 3933 3 3707 8 3666 7 3786 9 2649
4122 0.29215841929335584 0.15840141411548558 0.36405001390007508 159 124 78 0.11467064031038814 6 803 5 774 8 816 7 902 9 670
4124 0.26717588597786263 0.18886196503932987 0.36529701860878028 185 159 124 0.14601026734766151 6 845 5 808 10 799 8 847 7 943 9 712
4125 0.28029826667930002 -0.38939831516953505 0.39292870837560728 217 163 138 0.17532943730150555 6 316 5 1503 10 318 11 327 8 1572 7 1722
4128 0.31557317304951144 0.12102513295613693 0.36720636535174955 72 108 71 0.20566275839147341 6 1918 5 738 8 1979 7 2171 9 2687
4129 0.24181741272143725 0.17644433316499472 0.36979842107989547 177 141 85 0.11023125045303439 6 821 5 789 8 2030 7 924
4131 -0.31903005897901132 -0.77539688139738194 0.47363136114513826 101 59 57 0.52041992940498027 4 1493 5 3181 3 1391 10 112 27 1089 11 144 8 2431 9 1157
4132 -0.078831279558078032 -0.005743766053830153 0.41997133232240358 31 102 62 0.30526769327142039 6 2844 5 3454 8 2894 7 3059
4133 0.28192596672032799 0.15061717079117717 0.36749468246752415 137 122 108 0.26680892677178003 6 2951 5 1897 3 2131 27 696 8 3003 7 2206 9 2710
4134 0.2386503637714899 0.1615855576827647 0.37086718397666135 178 137 102 0.31328164728294905 6 2960 5 2879 3 2138 8 3009 9 2719
4139 -0.095606217668822824 -0.047308479849867018 0.42482738859129893 164 185 200 0.36883967880714991 6 3538 5 3445 3 2973 11 565 8 3636 9 2600
4140 0.045665979819789093 0.11736718098177745 0.39889579044019974 82 117 151 0.70791410317854508 6 2918 5 2832 3 2094 8 3691 7 3141 9 2679
4143 -0.0025584203349154969 -0.31873066762455049 0.42534870731134761 175 194 92 0.50639374659792513 6 3944 5 3833 8 4035 7 4122
4144 -0.078847728831355435 -0.2191007843794969 0.43151052143372459 136 90 59 0.16838547311164448 6 3970 5 3865 8 4068 7 4149
4145 0.25150736970283605 0.16663665986122847 0.37300492793320378 246 244 243 0.36340767853978895 6 3611 5 3524 8 4177 7 3829 9 3988
4150 -0.20488900792367576 -0.83558703328394057 0.4546178048912185 103 62 51 0.13670722787851741 5 18 3 14 7 23
4154 0.088824603540440708 -0.79448125631202482 0.41844830544795347 110 49 39 0.010665356244710295 4 77 5 51
4159 0.25959704846162679 -0.74040306853365323 0.40179896529766074 130 148 138 0.14914469758303295 5 74 11 92 8 86 7 63
4160 0.29984624734430382 -0.73595930351632644 0.3985316672914988 198 185 180 0.1357261723946101 4 135 6 57 5 81 10 86 9 1127
4161 0.34469912488059445 -0.73090837833559685 0.39214528499761686 108 63 66 0.14109156304919554 4 138 6 1297 5 84 9 1130
4162 0.34469912488059445 -0.73090837833559685 0.39214528499761686 108 63 66 0.14109156304919554 4 139 6 1298 5 85 9 1131
4163 0.31836478489774273 -0.71825077115939118 0.39899125622125781 108 134 120 0.045097947324418575 4 145 6 64 5 91
4166 -0.35782520419610375 -0.63681120291473614 0.48966601155564987 142 143 147 0.31577419858738404 6 86 5 113 9 93
4168 -0.20253657679028098 -0.61769337445169792 0.47018524510339943 169 169 169 0.2681531270985103 6 117 5 133 3 171
4169 -0.32553664265440557 -0.60678780499233798 0.48480839484817462 170 169 167 0.47824246370719342 6 120 5 135 3 164
4171 0.094635689194781533 -0.5332584927956735 0.42656555744707347 201 188 86 0.1952380276981778 6 165 5 169 10 218
4172 0.25058326520274388 -0.53682423122005463 0.40336128510437758 139 108 118 0.036933979891379365 4 289 5 173 6 1402
4173 -0.043724253885722972 -0.5206018981712468 0.44686350329242958 81 133 183 0.50379543150178085 4 286 5 174 10 245
4174 0.18263216274862337 -0.52524789124082338 0.41302087522172715 199 187 174 0.63076366158541763 6 1410 5 183 3 243 10 213 9 1264
4178 0.17147029001277975 -0.50333908568788865 0.41323137295791168 196 173 155 0.26950502729491749 4 325 6 200 5 213 10 244 9 179
4179 0.17140827293974864 -0.50315644003855864 0.4134651471422347 196 173 155 0.34059607646110962 6 201 5 214 9 180
4180 0.35136412877663142 -0.49543063327161929 0.39170092059425649 247 245 239 0.6280824390762475 4 332 5 219 7 250
4181 0.067740882937800909 -0.46560240619085957 0.42636856001508616 213 218 193 0.47598140308918147 4 340 6 208 5 225 3 287 10 269 27 261 11 290
4182 0.3517541165190356 -0.46278118460897411 0.3909852885722081 246 249 243 0.92801366422463416 5 230 10 1452 7 1630 9 2325
4183 -0.40392576503556904 -0.42627454236846002 0.48434840269365931 175 164 158 0.077314575233300639 6 251 5 256 3 269
4185 -0.31153231966806866 -0.42692900726754668 0.47312169920745761 201 175 159 0.11491475716459706 6 253 5 265 8 313 9 233
4186 -0.14292686038964394 -0.42434273508095177 0.45036997861934219 214 205 198 0.21243683039080755 6 270 5 279 9 226
4188 -0.40552514714440091 -0.41465326088066112 0.48259489114616827 195 169 145 0.46282390918512728 4 1752 6 287 5 285 3 291 9 256
4189 0.28864185948098536 -0.41763361121836851 0.39389560440930432 174 148 135 0.23159062358104551 4 413 5 303 10 291 8 333 7 338
4190 -0.30275471410924198 -0.39673677217265019 0.47127021773754302 201 158 107 0.26690376468524818 6 307 5 304 9 282
4191 -0.38276353615236502 -0.36827622742855515 0.4808574787284014 153 150 141 0.4357553302773885 4 420 5 320 9 307
4192 0.082687469507337533 -0.3795929640120384 0.4193876928484857 196 180 120 0.30952586953310279 6 323 5 321 3 380 10 350 27 330 11 357 7 381 9 1398
4193 -0.38131273828869827 -0.361663576661091 0.47798819900103584 133 155 157 0.5327349550788002 5 323 10 383 27 302 8 386 7 1752 9 1422
4194 0.22300573975364529 -0.36675380581850953 0.39988920709000692 149 147 151 0.096024097937326955 6 335 5 328 10 358 9 291
4195 0.12508507045602646 -0.36015995605831508 0.41138829041140745 161 185 109 0.91730938963792008 5 334 10 371 27 346 11 371 4 458 6 344
4196 -0.32209166214490803 -0.33570994446155628 0.46703903485131543 187 123 132 0.12026352195746402 6 358 5 346 7 1781 9 323
4197 0.15699367858288571 -0.32381313038523657 0.40610835461072281 167 177 104 0.24504262940174396 4 485 6 368 5 359 3 425 10 392 9 1437
4201 0.16031107896184638 -0.29515470149966822 0.40372620436190959 184 187 113 0.48401769817507018 6 394 5 386 3 440 10 1578 11 410 8 425
4202 0.015380077875187977 -0.28638938502811107 0.42290459013352966 165 197 108 0.16276310566212066 6 405 5 390 3 439 8 1649 9 1464
4203 -0.15914569018900698 -0.28079002103260109 0.44293406280382031 204 153 98 0.91003020425805625 4 506 5 392 8 440 9 348
4204 0.18410146418851664 -0.28647009852956529 0.40147963949420262 176 190 114 0.27804727662967499 6 1625 5 394 8 1652 7 1814
4205 0.33185469533978196 -0.28989455365044048 0.39121938658020278 186 205 115 0.67616126403420218 6 406 5 396 7 451
4206 0.27974356969489694 -0.26844500570360208 0.38750332195482268 172 167 99 0.4899303110447687 6 1631 5 408 3 1799 10 1593 11 424 8 1662 7 1827 9 1472
4207 0.0082624694862679302 -0.25940419761935929 0.42328800944563671 164 171 101 0.28208980202620798 6 1634 5 409 8 451 9 355
4208 0.33302939933973191 -0.24675188028321618 0.37847659061452299 178 180 111 0.27299664709328175 6 1640 5 416 10 430 8 467 7 477 9 358
4209 0.13305875767557579 -0.2328349380844342 0.40651048539880197 182 182 122 1.4390262161080636 6 448 5 419 4 570 8 479 7 485 9 365 9 368
4210 0.27294001290293896 -0.23434604069370094 0.38762663896656147 175 178 102 0.21993135969207783 6 449 5 421 8 484 7 490
4211 -0.52815214137315103 -0.21025475511953112 0.48953999800958964 140 147 157 0.45618597155956492 4 562 5 423 3 469 27 407 10 448 9 383
4212 0.047694444841862721 -0.2191781111889092 0.42246506288313213 173 176 109 0.16709978613793144 6 458 5 426 7 504
4214 0.086060718292591723 -0.20357422823487104 0.40858298363427209 197 185 143 0.34117878379111943 6 477 5 439 3 507 7 527 9 380
4215 0.086060718292591723 -0.20357422823487104 0.40858298363427209 197 185 143 0.34117878379111943 6 476 5 440 3 508 7 526 9 381
4216 0.0057074068693331315 -0.19621908637471486 0.42012587721763794 170 176 96 0.14382286294143884 6 1675 5 445 8 1714 7 535
4217 0.28284277642110434 -0.19783918443976597 0.38327881561122606 192 204 107 0.25622591609005385 6 483 5 452 8 519 7 539
4218 0.12759068264657841 -0.18562690567211415 0.40367500201512374 173 179 100 0.2835855828648276 6 490 5 458 3 522 10 460
4219 0.031111752450384639 -0.16948467236703085 0.41034940455181829 166 177 117 0.29492501859405174 6 501 5 470
4220 0.28693115453761492 -0.17435975812925639 0.38166968985449301 155 192 109 0.13728527213638048 6 1689 5 474 8 534 7 1904 9 400
4222 -0.30085223377980747 -0.13843194100625636 0.45690305629140776 177 162 121 0.11604950408777599 4 632 5 495 9 431
4223 0.31286779804280035 -0.14670278835993433 0.37620614494856142 202 192 143 0.066762004160510841 4 638 5 499
4224 0.31312483746312492 -0.14679500964687922 0.37635335819612847 202 192 143 0.12992110243746058 6 1704 5 500 7 1922
4225 -0.049896580930551881 -0.13414897120091626 0.42601985838236583 196 153 110 0.16599504371752746 6 542 5 502 8 1748
4226 0.12584896127293199 -0.13564941701962363 0.398354679404822 166 168 101 0.35472683977272079 4 640 5 503 9 432 7 609
4227 -0.28416317197114543 -0.11914741169766596 0.44833490178891161 210 169 110 0.30981905370797652 6 553 5 507 8 578
4228 -0.22980391342367551 -0.11094227939153303 0.4462827025058308 167 143 116 0.62474466755396829 6 564 5 514 8 582
4229 0.057500322838748841 -0.11156326926685148 0.40498151875278526 168 175 100 0.64482973919746001 6 566 5 519 3 570 4 651
4230 -0.33510349143593404 -0.095697674043555447 0.45813977059889593 196 187 56 0.4398625772249154 5 522 3 571 8 586
4231 0.14312184263976552 -0.09413666560436848 0.39353196702031606 176 181 106 0.28554779974534961 4 667 5 527 8 594 9 455
4232 0.16288391492240822 -0.086527113149973606 0.39105309659605503 241 238 183 0.34458097090788248 4 2077 5 533 3 588
4233 0.1661316001921187 -0.052206162081378397 0.39263694138764405 179 184 118 0.30849915860721255 6 609 5 558 3 627
4235 0.07061713027679685 -0.032279473135400381 0.40061866534571533 179 200 101 0.76334938584864842 5 582 3 645 7 696
4239 0.0071884421424471059 -0.013614958695527035 0.41305532394556621 169 180 99 0.61669104837032529 6 647 5 598 10 592 9 509
4240 0.26528398265946923 -0.0086433002605760326 0.37776397573868875 157 156 83 0.27485716167308943 6 654 5 606 9 515
4242 0.15246170669135589 1.739449399588977e-05 0.38645678462664224 178 191 99 0.34573152840104654 6 664 5 612 8 678 7 733
4243 0.26253766546114293 6.6231025395727117e-05 0.37389420622984587 152 189 96 0.77383527193239909 5 617 6 665 4 775 8 680 7 737
4244 0.15278104103182216 0.0073487695954582363 0.38852396328918343 180 184 97 0.99582707841667817 6 1827 5 621 3 691 10 609 8 683 7 736 7 2067 9 1655
4246 0.11047261277636357 0.045112678765356122 0.39099667872428312 173 201 98 1.0750569834615185 5 646 10 627 3 736 7 765
4248 0.28975600761413645 0.054531225038748576 0.36993349475091941 140 132 130 0.27704378811522312 6 703 5 658 8 716 9 556
4249 0.34978664174855545 0.05312322407893029 0.36161491518986355 179 172 160 0.46713572158159822 5 659 10 1792 8 1915 7 2107 9 1694
4250 0.060699270771692945 0.058527611330718224 0.39803237927987112 180 179 115 0.18192650493016954 6 702 5 661 8 715 9 555
4251 0.011020316814981578 0.058824249129688463 0.4062992819170928 175 178 109 0.54035408852843747 4 859 5 664 3 760 9 554
4252 0.33327745353080346 0.062766275643190775 0.3609225323627368 165 179 97 0.33037468343428633 6 711 5 668 7 783
4255 0.25312468110780079 0.077267921283995872 0.37172559782315651 133 47 81 0.24045786345972847 6 720 5 678 8 735 7 798 9 574
4257 -0.22264261466768664 0.089454201494305746 0.43477914588473049 178 188 66 0.99626601514428148 4 906 5 684 3 814 9 578
4258 -0.041065286804067472 0.086389640797572192 0.4116796767653978 138 175 191 0.17827461115611004 4 901 6 726 5 686 9 579
4260 0.29560581519325774 0.11009175695851645 0.36588786742122159 173 188 183 0.33276823261429511 6 760 5 719 8 1967 7 835 9 1739
4261 0.25094005449778123 0.11108343239152102 0.37142409719358471 111 107 94 0.13025877564189006 6 759 5 722 8 772
4262 0.28436165517277073 0.11752309666623495 0.3661668825963158 193 196 173 0.15408696754920337 6 767 5 732 10 714 8 775 7 838 9 607
4263 -0.38365106655325715 0.12476976426483635 0.45419289681863267 112 91 62 0.11608231848456686 5 736 3 844 8 767
4264 0.26549871113638834 0.12320538989445043 0.36856847049665231 170 155 127 0.23213749438372297 6 772 5 740 8 780 7 847 9 615
4266 0.24525653225574556 0.13481084366071536 0.37136730269189522 230 206 117 0.075044534669089863 6 781 5 753 8 789 7 861 9 630
4268 0.23779635603186633 0.13600622549439456 0.37243660427223757 173 136 81 0.13800023072824466 6 784 5 755 8 1990 7 866 9 632
4269 0.34215622493058889 0.16217494356004528 0.36003316496385446 50 116 91 0.10208467246965151 6 808 5 777 7 908
4270 0.22545958283974027 0.18444251436642545 0.37088055513905099 209 158 101 0.068970609058195867 6 836 5 801 10 791
4271 0.2412485795542475 0.18531660226280727 0.36808728422402315 196 143 64 0.28437304801732161 6 839 5 802 9 710
4272 -0.20786375054997536 0.18882965181245823 0.42736039205615839 88 154 195 0.32927773731720811 6 829 5 805 10 764 7 923 9 688
4273 -0.090266678019728486 0.19365078867569821 0.41184661867959799 87 150 186 0.15451596385289681 6 841 5 813 9 704
4276 0.049862561015865406 0.2384299763639825 0.39089244845302018 203 205 204 0.16384335834876437 6 878 5 831 9 734
4278 -0.2924028797414257 0.27346842465091314 0.43423362689764128 235 236 229 0.62966699879179 6 898 5 844 3 968 27 768 8 886 9 750
4279 -0.058089559350108497 0.31199771766606388 0.40164637324333791 206 207 163 0.28628383926171147 4 1136 5 890 9 794
4281 -0.39979248651946953 0.32066243656647853 0.44600037604206122 186 180 139 0.87466658121543583 6 963 5 899 10 869 9 1884 7 2343
4282 0.13223800997129914 0.32138136681622914 0.37589460612572212 229 227 90 0.52710033706830783 4 1157 5 900 3 1025
4283 -0.22146580530048321 0.33691395242707628 0.41904460232704821 137 127 102 0.13566469213998564 6 2114 5 908 3 2301
4284 0.061332841148769537 0.34857031790423015 0.39297712372652244 220 225 193 0.28993292918383179 6 999 5 916 9 848
4286 -0.45629715827983047 0.3515782897812495 0.45154930975597563 192 176 149 0.092036868659667911 5 924 3 1100 7 1104
4287 -0.2528786624434709 0.35465133358725248 0.42345765156860715 191 194 173 0.46218407401308725 5 927 6 1000 8 2177 7 1122 9 829
4288 -0.37852825909735249 0.35981197466916998 0.44303445534385344 190 164 107 0.30459195481675688 6 1001 5 933 8 980 9 825
4289 0.29156028593377531 0.36234897252456894 0.35421755952467154 207 141 88 1.3813191679010195 5 934 10 1017 8 999 7 1141 9 867
4290 0.35270793408038104 0.36513369581122873 0.3453797302728826 223 169 110 0.60010942307317983 5 937 10 1026 11 1944 8 1002 9 878
4292 0.33297147436676733 0.38099953994471347 0.33847253994995791 229 171 123 0.16386717854623364 4 1230 5 954
4299 -0.51450242364340482 0.46188041373810218 0.45550479943246852 136 143 102 0.28112805868628882 4 1358 6 1097 5 1053 3 1256
4301 0.30254749522200614 0.47598601965095638 0.34737289462664545 226 217 100 0.16246967750792385 6 1139 5 1066 9 994
4302 0.30703879269784379 0.48258249531501207 0.34503231345675722 169 164 132 0.19916949824147864 4 1337 5 1074 10 1185
4303 0.29577059080039159 0.48648199968685418 0.34551884198289329 178 172 150 0.36034847730703612 5 1082 10 1187 8 1144 7 2549
4304 -0.11205469530498961 -0.90259962907905333 0.43645349682870327 189 170 101 0.070230829292367916 4 1442 5 1105 10 1225
4306 0.18266366893680935 -0.86473125382744886 0.39987963935954873 189 190 175 0.13929534740652247 5 1121 4 1462 3 30 8 1178 9 1036 10 1220
4307 0.23981720023183611 -0.86687453495515399 0.39374277855446937 195 196 180 0.097234938222786227 4 31 5 1123 3 1389
4308 0.30458554781075925 -0.86324784790061182 0.38814140625536508 110 127 117 0.15171980673289232 4 42 5 1138 8 1179
4310 -0.21580211528423826 -0.82415538344354211 0.45236318184290036 208 185 150 0.59558228152521553 5 1152 27 21 7 1390
4313 0.14128064545167435 -0.7957245351092247 0.41206318461977398 187 182 171 0.091349849425245572 6 1233 5 1180 8 1235 7 1406
4315 0.14219744161381037 -0.7827283603786328 0.41515400214492781 190 182 172 0.078335760400451662 4 1525 6 1252 5 1197
4316 0.35555838658497463 -0.77631817484439736 0.38999929967259828 186 183 178 0.075016367616155474 4 104 6 1258 5 1207
4317 0.34907942161606892 -0.7689481836226516 0.39034032501870525 133 165 150 0.11732325289359485 4 111 6 1264 5 1213
4318 0.35552691602938347 -0.76317927007469422 0.39007501777989795 178 179 174 0.13063372454582656 4 1549 6 1266 5 1219 3 101
4319 0.35596631935691458 -0.75014210895539235 0.39187769081091373 175 180 174 0.059230067954461181 6 2374 5 1225 11 68
4320 0.16406110170269445 -0.7382750639122464 0.41682244750279296 97 134 76 0.21160131097337181 4 116 5 1229 3 99 10 1304 9 1144
4321 0.35509891631558554 -0.73792747533920189 0.39056123741652421 181 160 156 0.33912959368762491 6 2379 5 1243 11 1247
4322 0.33144752681206169 -0.71000615792686361 0.39866636691818685 51 99 80 0.083600512504463612 4 1570 6 1300 5 1250 3 148 10 1314 11 1266
4323 -0.040568274321021086 -0.65736618958295634 0.44724684317989183 210 213 187 0.14727878003395428 5 1253 3 1473 27 148 8 1323
4324 0.094101393491442656 -0.66168096461497472 0.43075413934649864 201 204 185 0.29418644925178644 4 1590 6 1306 5 1255 3 160 10 135 8 1320 7 106 9 1171
4325 0.31926925138490175 -0.65113957618793783 0.4020287094209099 209 205 140 0.31871835443986385 4 206 6 1316 5 1278
4326 -0.27825428985654277 -0.62132615259279345 0.47810786731663713 122 123 125 0.24487589788712802 6 1344 5 1283 3 157 9 104
4328 -0.034365440406688194 -0.59798057055499043 0.44545458586020925 199 206 175 0.31196092024436856 5 1302 10 176 8 1388 7 1553
4330 0.25156849978703943 -0.59771767686541211 0.40787037855830077 183 162 131 0.42513373999256332 4 1638 6 2427 5 1307 3 2664 10 2292 11 1299 9 2219
4331 -0.39115164608250119 -0.5712006373641626 0.49279620889577436 159 80 96 0.081341875611773459 6 1377 5 1312 3 1512
4332 -0.021781778843249815 -0.58555243815597113 0.44232082976627446 213 216 190 0.23720340720250266 4 1633 5 1314 9 1225
4334 -0.045471028096453731 -0.58548070480708436 0.445729782255391 251 244 244 0.65528703420817036 5 1321 3 194 8 1395 7 2692 9 126
4335 0.13798899366353895 -0.55509125666121895 0.42116693978486713 218 204 200 0.39676962599899168 5 1339 3 226 8 1427 7 1588 9 1233
4336 0.10929967466562128 -0.5370185369963747 0.423988529854531 215 196 126 0.94105501878917097 5 1353 4 3682 3 2708 10 2334 8 2545 7 2728 9 2280
4337 0.11607943139205427 -0.52753769761483671 0.42240050911629495 158 138 67 0.29459303949219956 4 1688 5 1361 10 1413 3 241 27 210 11 1360
4338 0.069058262806699564 -0.5056406391525774 0.42680500378920089 95 118 135 0.21489523266719932 6 1423 5 1369 9 185
4339 0.10349700134559166 -0.504919815744579 0.42323782101997015 106 122 103 0.056676520667376301 4 1702 5 1370 10 250 9 1275
4340 0.033957718989587798 -0.49449789380635079 0.43105248581776473 205 197 185 0.47881471709791124 5 1376 3 253 10 255 7 253 9 1286
4343 -0.0083643858689926159 -0.46120440256431272 0.43492438411289014 191 192 181 0.10052470563034555 6 1445 5 1392 10 277
4344 -0.26920038470395558 -0.43188096642039109 0.46676101094160166 236 218 199 0.18169579477569603 4 1733 5 1420 3 1616 27 247 9 220
4345 -0.35188557024657929 -0.42118962533313259 0.4773849345083635 234 220 212 0.13613569121780481 6 1493 5 1428 8 1502
4346 -0.18132818356866115 -0.42224141239555563 0.45543638003944908 185 164 149 0.28992484215841813 6 1498 5 1442 9 227
4348 -0.47107252371711517 -0.36626748832157408 0.48851894316474415 52 117 85 0.69816379748525115 4 1820 5 1505 3 2777 27 1317 10 380 11 388
4349 0.16653375110047275 -0.38317931323657423 0.4124610830720703 180 170 116 0.12196812895906883 6 322 5 1507 7 376
4351 0.22364173690889838 -0.38063816883426288 0.39993429289578647 162 66 84 0.19348420594419205 6 1564 5 1512 8 1588 9 266 7 383
4352 0.22891196222049842 -0.37421550972115236 0.39928064780292444 234 212 211 0.10775843157513031 6 1569 5 1517 3 397 8 1595 7 1746 9 1396
4354 0.238687516179513 -0.36014493357396188 0.39691528917805563 117 87 92 0.136458871730819 6 1577 5 1529 8 1605 7 1762 9 1410
4356 -0.005584243488171714 -0.3447924678225035 0.42863956365383715 171 190 109 0.56932893446274524 4 1877 5 1540 3 1747 10 1559
4357 0.013089767777509601 -0.34310335191544306 0.4215650069354463 167 180 98 1.1116962772394925 5 1545 3 1751 27 345 7 1775
4358 0.0045721036662534076 -0.3298618683613076 0.42317645992446812 167 176 91 0.88070073141161398 5 1555 3 411 8 1626
4359 0.0034984183080718559 -0.31082647054122448 0.42524986077997123 166 177 101 0.40758139641219454 6 1611 5 1567 7 423
4360 -0.41748051937622332 -0.29306518833409212 0.47894401074419052 108 159 148 0.084559888982836881 4 1900 5 1570 27 352
4361 0.23250746489257224 -0.30238265407494258 0.39743248834018174 173 180 102 0.46006816882759249 6 1614 5 1573 10 400 7 1804 9 1444
4362 0.17335239866604168 -0.29536723947896881 0.36652340299407699 179 186 118 1.837565046472502 4 1913 5 1576 9 1453
4363 -0.22242759461537598 -0.28148645269337702 0.4512795157311919 198 47 76 0.91237170221477548 6 2669 5 1577 3 1776 27 1388 8 439
4366 0.1374605855638204 -0.24958219038076665 0.40339976554649798 186 204 94 0.28347296382273413 6 436 5 1601 8 1668 7 1835
4367 0.0061352440158252419 -0.24570493688268805 0.42229559588916782 165 172 93 0.43242736777631324 4 543 5 1603 10 433 8 1672 9 1492
4369 0.20024260589879239 -0.23283460437998352 0.3951266835387075 175 170 112 0.19951310622007995 6 1648 5 1610 3 488 10 435 8 1681 7 1845 9 366
4370 0.34382273390364643 -0.21830912543874473 0.37607220846783079 146 142 113 0.34250779264979042 6 2708 5 1625 3 1837 8 2771 7 1857 9 2498
4371 0.17073166381279836 -0.21412909910480551 0.39832248455085689 174 179 105 0.36470539283710901 6 1657 5 1626 3 503 7 1858 9 1499
4372 -0.14937311337181428 -0.16476978235312301 0.43820862378066788 189 187 188 0.81983481507143419 4 605 5 1657 10 475 27 465 11 492 9 1539
4373 0.33870046048117153 -0.17592166429614089 0.37530470066543553 235 229 192 0.44830214233914661 4 611 5 1660 9 397
4375 0.017953939311317793 -0.12173676598082617 0.41252594847115076 164 171 101 0.18310685117526154 4 646 5 1680 3 558 6 1715
4376 -0.26580172385996592 -0.10792771481650762 0.45588359916554494 173 153 69 1.2666680934770083 4 2048 5 1686 3 1892 5 1688 8 1770 7 1944
4379 0.29833510385167183 -0.091791983161101126 0.37631796575652432 157 165 89 0.40835177678829992 4 676 5 1705 8 1786 7 641
4380 0.29267802571981766 -0.082451009157349764 0.37467045087434669 164 163 90 0.79973205020733418 6 1744 5 1713 10 533 8 1799
4381 -0.14857879027751836 -0.064678820790522479 0.43159879447343669 138 164 168 0.28225840084713189 4 2090 5 1723 10 544 9 476
4384 -0.068704293847165962 -0.032112130333528686 0.41015590589689177 132 149 97 0.99839836392994086 6 1791 5 1747 8 644
4386 0.016657442695274673 -0.028631857894390954 0.41095034788919482 171 178 99 0.63433513190931645 4 2124 6 1795 5 1749 3 644 8 1847 7 2023 9 1622
4387 0.28919907127627553 -0.023763588108017777 0.37190781980907828 184 200 102 0.83903893111762029 5 1757 4 748 10 590 8 1856 7 2030 9 1627
4388 0.33527412621345959 -0.018944713104545187 0.36908613822404734 165 164 86 0.52915968164019789 4 758 5 1760 9 1631
4389 0.22710482886324695 -0.017570641757548966 0.37818453675109126 170 173 97 1.1562655276208604 5 1762 3 1981 8 1859 9 1634
4390 0.018609216464393272 -0.0080130709887193119 0.40401088194425178 178 181 98 1.0436633023568045 6 653 5 1767 6 1808 7 2042 9 1641
4391 0.06770128696929259 0.0077669434645668382 0.39109711345581261 181 207 82 0.47652491825800558 6 1826 5 1785 7 2060
4393 -0.37479365443226126 0.022731513551330563 0.45803619104710463 203 151 174 0.66432727432554473 5 1794 4 2171 3 2010 4 3156 27 577 8 1890 9 533
4394 0.19564869351309172 0.016558701085163777 0.38345988153141697 189 210 91 0.34064630613700259 4 2175 6 2854 5 1795
4396 0.33430202208277104 0.019436846778074224 0.36595667494837658 172 172 101 0.54662709449288971 4 805 5 1797 3 707 10 1771 8 1900
4398 0.14623086446508987 0.049111687730872718 0.38751292300866569 161 174 88 0.78958817905774636 6 1862 5 1817 3 746 4 850 9 1686
4399 -0.34211903944964983 0.071269205361566945 0.4502891936512326 191 140 158 0.19406321461434195 4 2217 5 1830 3 783
4401 0.15707196014914687 0.074476080866229255 0.38629622859265383 174 206 89 0.37521666063286591 4 2230 5 1840 10 1813 11 642 9 1717
4403 0.25150025458034819 0.12460476633430179 0.37121944207771285 220 208 184 0.20341770422749458 6 1923 5 1874 8 1980
4404 0.079596823607080369 0.13807444971433577 0.39186023927225283 165 175 101 0.55536768918713175 6 1933 5 1882 3 854 9 1759
4405 0.25735965062718291 0.14491635211054765 0.37082551457723806 229 206 109 1.4460278614678985 6 1947 5 1886 3 2122 10 2708 27 1675 11 2564 7 878 9 1770
4406 0.091398087519078283 0.1462757611446692 0.38863197136095812 162 170 91 1.2835016346007253 5 1889 6 1948 4 965 6 1943 3 2129 27 1683 8 1998 7 2186 9 1766
4408 -0.26808541517379647 0.1530289564555456 0.43704419480355916 153 140 62 0.30304623531934122 4 974 5 1899 9 634
4409 0.31487688803056946 0.15154996764178952 0.36070116130127694 49 94 44 0.388332465434369 6 1963 5 1900 7 2208 9 1778
4410 0.092854683443198208 0.1644842310075991 0.38984801218067638 171 173 101 0.74160274272985838 4 2302 5 1908 11 738
4413 0.32952456887424086 0.20212403065432233 0.35751264024058038 223 174 178 0.16206461141641837 4 2352 5 1957 10 1933 11 836
4414 0.046161733556699308 0.23037101495469831 0.39091422616585175 248 249 251 0.25782649082621301 4 2368 5 1968
4416 0.24880207677532529 0.26568944369254394 0.36465629774127034 235 246 237 1.0075113836139753 4 2393 6 2044 5 1986 11 2653 27 2580
4417 -0.53681765963373651 0.27671486868220335 0.46606662110796848 193 194 196 0.29787799350319116 4 2416 5 1993 8 2087 7 989
4418 0.036825899571982026 0.28240928132976317 0.39007520448235794 235 221 192 0.31309605868321816 4 2403 6 2063 5 2001 3 965 10 866 9 1875
4419 0.037312243036432186 0.28253861604509123 0.39112346680394577 235 221 192 0.1284774705795961 4 2404 5 2002 3 966
4422 0.22395223132312908 0.30069783812181655 0.36583487129618697 185 175 67 0.13541793617742726 6 2082 5 2024 3 2237 10 1999 9 1901
4425 0.017475351087051401 0.32292926144068274 0.39113381612998427 229 227 199 0.061423777871967004 6 2098 5 2047 9 1916
4426 0.13913023363843613 0.33529834917232265 0.37449570964661927 221 222 91 0.219146106728762 4 1178 5 2053 9 842
4427 -0.2476557826000394 0.3357282797648411 0.34849177279798749 189 196 146 2.7372393041686829 6 989 3 1085
4428 -0.24083048646479405 0.34282595328281462 0.42451857725691045 189 196 146 0.13489647776666241 6 988 5 2063 3 2310 9 821
4429 -0.49631515337750981 0.35049928046259565 0.45665953135366455 173 151 127 0.15325748222542632 4 2504 6 2129 5 2071 3 2330 10 900 27 1875
4430 0.095117032903388313 0.3526160520133983 0.37997105442235846 154 157 128 0.082650205089757664 6 3122 5 2073 8 3189 7 3327 9 2882
4431 -0.56797885003454585 0.35170001829847436 0.46545704445972458 186 183 149 0.18983355611883648 4 3442 5 2074 3 3260
4432 -0.30684838414756016 0.3543224766534705 0.43028195809205561 187 190 171 0.34648266033543279 4 2501 5 2083 27 854 8 2169 9 826
4434 -0.33015736196026624 0.36889334354585429 0.43493416570321558 173 172 101 0.52457481986361298 6 2163 5 2104 9 847
4435 0.32966315541244146 0.37891334311464248 0.34807227057859608 196 135 81 0.27870160380119369 4 1227 5 2110 3 1094 8 2227 9 1983
4436 -0.37181401720641394 0.38437358428197421 0.43853245245820172 184 160 132 0.12714509616031813 5 2120 3 1157 8 997 7 2421 9 855
4438 0.30524576626348904 0.39069319401478897 0.35009729388659816 195 133 82 0.19246182057961816 5 2125 6 2199 8 2240 9 1995
4439 0.29362981648862396 0.39836642459394811 0.35391104774302429 194 134 82 0.4854614581236007 4 1249 6 2209 5 2137 9 2004
4440 0.37067086413076694 0.40880976922877915 0.35020708240466814 187 135 85 0.16480452619031849 6 2215 5 2141
4441 0.31033152970176486 0.40759956807787617 0.34985993644965385 191 132 80 0.61047471237733075 5 2143 6 1041 3 2355 10 2105 11 1072 8 2261 9 2006
4442 0.31045996163387801 0.40759114705408012 0.35040986189839679 191 132 80 0.61929445185293008 5 2144 6 1042 3 2354 10 2106 8 2262 9 2007
4443 -0.5595287370206018 0.40780495709255826 0.4636365737286785 137 135 49 0.078722301791861557 4 2565 5 2149 3 2381
4445 0.36789541751744353 0.42473539921343412 0.3414652493797522 192 141 86 0.37105299338634451 4 2549 5 2161
4447 -0.30712614374538993 0.43884383866346599 0.42341699361074692 175 146 102 0.94199321718092399 4 1301 5 2178 3 1204 7 2486 8 2268 9 2005
4448 0.30484528095550045 0.44745150602059885 0.3496267418753225 190 181 110 0.66948211526980017 6 2244 5 2182 10 1119 9 948 7 1248
4450 -0.4048912623483415 0.4682530174666566 0.44093279743292402 128 142 177 0.70437366607506557 5 2198 3 2418 4 2613 10 1040 27 1947 8 2283 7 2504
4454 -0.36491075378793819 0.50322140106093149 0.43186944237626612 148 151 134 0.21726108369663572 4 2639 5 2228 3 2451 27 1984
4455 -0.45003797723917122 0.50293043317266628 0.44264082121106141 148 152 127 0.097781637792552029 4 2644 5 2234 3 2459 27 1026
4456 -0.20749224955987883 -0.90076175303841022 0.44159838159611786 120 61 67 0.74359846917902561 4 2662 6 2316 5 2256 3 3 4 1440
4458 -0.080586842662450822 -0.85426878423673591 0.43559762084402687 137 76 83 0.56927870590513585 6 2329 5 2269 7 1363 9 1056
4459 -0.0807391288636993 -0.85425147423862591 0.43465416612565999 137 76 83 0.4972378744429361 5 2270 27 2045 8 2374 7 1364 9 1057
4460 -0.21958247591264318 -0.83154919281698358 0.45377169884633017 125 70 72 0.42024259959036875 6 2336 5 2273 9 2133
4462 -0.18492916158231498 -0.77929388614795314 0.45660811377823279 203 167 133 0.13519116725990543 5 2295 3 1402 8 2427 7 2615 9 1129
4463 0.35560345982608599 -0.80347221935720337 0.38742173296649901 172 175 168 0.25876572794748148 4 1526 5 2299 3 84
4464 -0.30260798075762807 -0.76952041042191932 0.47133808835832797 107 49 39 0.32742783519907753 4 1497 5 2300 3 2518 27 40
4465 0.2556365307592825 -0.70422072394536295 0.41021505840637901 140 166 149 0.37853720402465241 4 1566 5 2327 10 1328
4466 0.38972981831236131 -0.69734680020961126 0.39275550971248874 34 40 40 1.0726334141024219 4 1579 5 2329 3 1492
4467 -0.36580947815335924 -0.64369531566312899 0.4899524496192777 232 233 235 0.39570067270487136 6 2392 5 2332 3 1458
4468 -0.017797048874693737 -0.65773053975569817 0.44542678636385685 201 198 92 0.46340225765141752 4 1582 5 2333 3 151 9 1176
4470 -0.30328897252298737 -0.63839063156116826 0.47987944161013313 232 235 240 0.12597524301644272 6 2399 5 2336 9 2218
4474 0.25807373739009015 -0.50524962064982448 0.4015141073328094 94 104 108 0.17344719318349808 5 2438 3 2726 10 3084 7 3606 9 3159
4475 -0.32667543556874951 -0.48274361569876145 0.46294550044573662 251 243 247 0.77555517982653954 5 2439 11 1413 7 1628
4477 0.071601323831758323 -0.4572295054829868 0.42263998015961401 232 239 201 0.3919254107962255 4 2842 5 2450 3 1635 10 2388 27 1292 11 2247 9 2330
4478 0.23687729531001162 -0.43078782143332739 0.4008823028311389 116 74 50 0.087672429614240252 6 2552 5 2486 10 2399 9 2350
4479 -0.15178963483451846 -0.41088858900173786 0.44985533424139496 231 191 142 0.22908254889757371 5 2499 3 2761 10 1506 27 1311 8 2648
4480 -0.35605800314589114 -0.38189265383498416 0.47613963560280426 189 152 107 0.14934001637925184 4 2916 5 2529 3 1689
4481 -0.53486475876227924 -0.35638924945521117 0.49685747554421178 51 121 84 0.85691791627799985 5 2548 4 3736 8 2705 7 2867 9 2449 7 3649
4482 0.33025354159263876 -0.36415022276800801 0.38444615764595963 205 197 179 0.55220299213552826 4 2946 5 2553 3 1754 10 1529 6 346 11 356 8 1599 7 1754 9 1403
4484 -0.25894336372066207 -0.32900357036505073 0.46081941244070079 76 107 71 0.27098182604878018 5 2566 3 1737 8 1625 7 1791 9 1441
4485 0.15892113967834309 -0.33495071996811038 0.40581675327666111 153 158 96 0.27515677122722315 6 2645 5 2569 3 2817 27 1374 11 2314 10 2473 12 828 8 2717 7 2876 9 2447
4488 -0.42949940066042308 -0.2998517367886866 0.48130078978415863 131 156 173 0.13258844169992262 5 2582 3 2813 10 1586 27 2284 11 423 8 2736 9 2473
4489 0.22847443052057631 -0.27882603531590294 0.39471545066073438 94 114 59 0.19262599297311922 6 2674 5 2597 8 2745 7 2902
4490 -0.46021351149313783 -0.2586834036231529 0.48325057788651038 49 113 96 0.5133946865906015 4 2979 5 2599 3 2836 10 1602 27 371 11 438 26 952 9 1489
4491 0.32480727056150127 -0.25415378596523736 0.38053483137347954 172 162 116 0.16196294132870573 4 2996 6 2686 5 2611 10 2513 11 1528 8 2756 9 1481
4493 -0.42170120038120495 -0.18613863935615896 0.47504557605050274 38 121 59 0.30938496111873354 6 3485 5 2640 3 2881 8 2786 7 2945 9 1524
4494 -0.096268230808363525 -0.19054583309340775 0.43185722478589572 121 120 133 0.35930244145079088 4 1982 5 2645 3 1842 10 457
4495 -0.34496519427742534 -0.16321091472411275 0.46357847195498375 155 137 96 0.23057221934526675 4 3049 5 2663 3 2907 27 1444 9 1541
4496 0.32562064511564948 -0.14348099619818974 0.37518059192673542 156 148 79 0.073836743708835126 6 2769 5 2695 7 2992
4497 0.086805854198157631 -0.13403204377957176 0.40585988061208378 167 167 97 0.34040418093334407 4 2037 6 2771 5 2699 3 1885 27 1474 11 1593 8 2832 9 1553
4498 0.13724273010414995 -0.13259137341026936 0.40182621713062455 189 200 108 0.36009279510603609 6 2774 5 2701 3 1888 8 2833 7 2999
4499 0.34608679359719474 -0.13116460803579866 0.37090833184924038 159 161 114 0.056882114522531758 6 2781 5 2704 8 2836
4503 -0.083078451030287659 -0.045788025060921285 0.42331768736472425 111 133 117 0.29589295670983617 4 3121 5 2745 3 1947 10 1722 9 2604
4504 0.34738439967369322 -0.03047762923512045 0.36605296766535683 137 131 97 0.37686026789435795 4 3133 6 2830 5 2756 10 2622 11 2475 7 3053 9 2610
4505 -0.026485460712108236 -0.024144151012822399 0.41452986478465648 162 175 118 0.63182972841905871 6 2833 5 2759 5 3449 10 2621 27 541 7 2022 8 1852 9 2614
4507 0.14098629650743866 -0.026975767909115371 0.39178570211651281 113 124 125 0.62746319852891175 6 2829 5 2763 3 1973 10 1743 8 2887 7 3052
4508 -0.47358938907952752 0.0037424958450399323 0.47180572836172985 176 203 91 0.33545273678898702 5 2769 3 2994 10 1751 27 1542 11 592 8 2895 7 3060 9 2620
4509 -0.56108899367333398 0.020170677159557095 0.48175002263714561 184 183 191 0.21504181570337053 4 3153 5 2773 3 3003
4510 0.08601227172025698 0.019155444860818091 0.3937082541222432 187 195 106 0.38087394288270987 5 2776 6 675 7 2077
4511 0.16563150837590435 0.020140160207502669 0.38718731142245455 171 175 96 0.44108448906312947 6 2855 5 2777 4 3158 9 2626
4513 0.34865342355631262 0.037389984066596174 0.36257051070341584 152 155 114 0.21502450418356472 4 3170 6 2871 5 2789 3 3026 10 2648 8 2928 7 3081 9 3442
4516 -0.025523377856650313 0.13448412529885287 0.4065225036863952 137 124 131 1.5162610333807829 4 2277 5 2845 3 2108 3 2115 10 1845 10 1854 27 680 27 687 9 2694
4518 -0.2634240579734034 0.1433547102846498 0.43741109331593092 161 149 129 0.25242953530440942 4 3251 5 2856 10 705
4519 -0.26291235386021222 0.14310097812231914 0.43841437039925013 161 149 129 0.083434305724326821 4 3250 5 2857 3 3088
4520 0.23094850004932715 0.14349420834233217 0.37303615809134527 227 166 111 0.41945899402645559 5 2861 6 2940 3 2120 10 2703 27 691 8 3000 7 3164 9 2701
4521 -0.33533571716701277 0.15039859907290995 0.44591783957758546 149 189 100 0.098455479975001717 5 2864 10 712 7 2179
4522 -0.33546482444310383 0.15015456458814619 0.44650253578069821 149 189 100 0.22858920334382046 5 2865 10 711 27 697 7 2178
4523 -0.32753103772165404 0.15787745714540574 0.44364821899714024 149 186 94 0.39187498411295746 5 2874 10 1857 11 693 7 3165 9 1763
4524 0.1800200389914392 0.19298249370593873 0.37640227963615241 133 181 191 0.11796105306401583 4 3283 5 2896 9 2739
4525 4.79426831484428e-05 0.19713816032051332 0.39963720095748778 68 95 82 0.13209562325183744 5 2901 3 2167 8 3027 7 3195
4526 0.23364231160374177 0.19876455005482746 0.37020322833734454 80 110 48 0.24129524132213262 4 3287 5 2904 9 2745
4527 -0.2907101647121258 0.20059729301236656 0.43786570906963462 181 162 73 0.37614230330086212 5 2905 3 3125 10 2734 27 1721 8 3021 7 2237 9 1795
4528 0.12140619325522396 0.23868187041304631 0.38222589759758469 202 202 200 0.53204311313813724 6 3012 5 2924 3 3134 10 2783 27 1729 9 3540 5 3542
4530 0.091183670807849684 0.25914761244011797 0.38394011755315122 203 205 203 0.13722416327628739 6 3041 5 2949 9 2795
4531 -0.085591050739961802 0.26104745776791222 0.4078229964543274 202 204 201 0.32542077472352038 4 2392 6 2042 5 2953 3 3168 9 2790
4532 0.11465901783873496 0.26830086251004182 0.38234600565953786 244 243 242 0.26032804552798183 5 2960 3 2208 27 1750 8 3104 9 2804
4533 0.36643085934410963 0.2945101405509602 0.34780760042536607 60 119 86 0.24554673932039556 4 3365 6 3688 5 2992 3 2228
4534 -0.28941826495146566 0.30586950680020047 0.43162001396321759 184 185 185 0.7295873912917985 5 3002 10 1971 8 3128 7 2328
4535 -0.24999662545448026 0.32827576558692745 0.42657777132689451 234 230 193 0.44574525429583084 5 3011 3 3229 7 3288 8 3145 9 2839 8 3791
4536 -0.15683404820455044 0.35403952906212155 0.41389516213927613 161 164 141 0.16742381455770952 4 2495 5 3036 3 3247
4537 -0.15763360666665505 0.35373472163067343 0.41299446883705088 161 164 141 0.12371877961657454 6 3118 5 3037 10 2016 11 1893 8 3806 7 3317 9 2866
4538 0.086196172694960257 0.36064051990952262 0.38044569236848313 248 248 246 0.074437341773381432 6 3132 5 3043 4 2491 8 3199 7 3334
4539 0.010031003436607823 0.36805951648842783 0.38971072555028863 198 198 198 0.50305710291022454 6 2175 5 3052 3 1092 9 1950
4540 0.010031003436607823 0.36805951648842783 0.38971072555028863 198 198 198 0.50305710291022454 6 2176 5 3053 3 1093 9 1949
4541 0.3011005115817309 0.38324751751555342 0.35500102859472238 232 170 119 1.087730846792532 6 3149 5 3063 9 2916
4542 -0.37544187709804999 0.39558614509712398 0.44038011983526382 219 196 175 0.86608936512053292 5 3071 6 2190 3 2365 8 3205 7 3346 9 1953
4543 -0.0051404094569004674 0.44194519031187274 0.38751554733167093 196 197 144 0.9804506097826301 4 2580 6 2237 5 3095 27 926
4544 -0.0049717026757665969 0.4419090338145969 0.38770812970928836 196 197 144 0.79549685698978367 4 2581 6 2236 5 3096 27 927 7 1200 9 2016
4545 0.28926948056995933 0.46504474996224066 0.34891659515878293 242 222 88 0.21948319963130383 4 3494 5 3112 3 2390 10 2937 7 3417 9 2978
4546 -0.44184494565738797 0.49243406901300923 0.44281421740144233 208 216 177 0.24371583502823779 4 3528 5 3133 3 2444
4548 -0.015737521021501538 0.50857656502062265 0.38200199253485634 234 234 232 0.3241648349482536 6 3237 5 3142 8 3872
