# 3D point list with one line of data per point:
#   POINT3D_ID, X, Y, Z, R, G, B, ERROR, TRACK[] as (IMAGE_ID, POINT2D_IDX)
# Number of points: 387, mean track length: 4.9727748691099478
8546 0.82259009802914551 0.051865634897394021 1.5146936079061628 184 197 197 0.18864891873105857 24 3323 25 3449 26 3757 27 3774
8545 0.82194495454696881 0.017195892057693167 1.4942099537135818 60 61 66 0.097783201390941529 24 3305 25 3439 26 3747 27 3468
8544 0.82237328924659059 0.002615574354255315 1.4977322147709811 200 216 218 0.15182407232228642 24 3563 25 3433 26 3742 27 3763
8543 0.78820428072453519 -0.039550300350536909 1.3835541396207569 229 240 226 0.13759955361131002 24 3548 25 3419 26 3727
8542 0.80481147013682242 -0.066328641379645767 1.453736005844775 164 173 182 0.060440846209373983 24 3258 25 3413 26 3464
8541 0.74657190310559407 -0.091265363131373234 1.3261663490626605 253 255 251 0.20318712810505427 24 3536 25 3406 26 3452
8539 0.64581930991779324 -0.39677969627457843 1.4662049557341472 34 39 61 0.075694759621655228 24 2736 26 2853
8536 0.76731244830362144 0.21985213402622444 1.4618695430508402 78 81 70 0.15687177284670398 24 3064 25 3304 26 3586
8535 0.78194117588875489 0.20593122623878718 1.5808824071110901 131 145 130 0.37567937131449702 24 3404 25 3299 26 3809 27 3554
8534 0.68036928906646676 0.20472301410617383 1.286170457425784 119 128 127 0.24804155023630625 24 3402 25 3298 26 3204
8533 0.78491585892144944 0.15600254658085741 1.4168351576210871 225 233 223 0.14030640524088261 24 3030 25 3292 26 3186 27 3186 23 3201
8532 0.80486663275697445 0.14492378712646403 1.6064285144789345 53 58 62 0.40123475934834829 24 3025 25 3288 26 3566 27 3536
8531 0.80960459117919537 0.11674119673956304 1.471312632311379 71 86 89 0.16658332072307963 24 3367 25 3278 26 3552 27 3518
8530 0.81564127243736795 0.11100723127041202 1.5720892695386657 191 196 200 0.042266794143670482 24 3006 25 3272 27 3515
8529 0.77419334789710248 0.10988235193822334 1.3661001746803692 37 40 45 0.13947386880327051 24 3360 25 3271 26 3543
8528 0.81588116448963077 0.10681280019410706 1.5854224972013418 50 55 61 0.32862290853234422 24 3004 25 3266 26 3778 27 3511
8527 0.79419414684005729 0.10414039360345757 1.4098867931093908 43 47 50 0.094916753542605439 23 3169 24 3354 25 3264 26 3151 24 3001 27 3149
8526 0.81637527103841578 0.079809331550744086 1.4746970107838544 246 255 255 0.99076180167154249 24 3341 25 3252 26 3769 23 3156 27 3782
8525 0.81811739134824202 0.074953518413889669 1.4888189708459847 41 42 47 0.12952840218014461 24 3337 25 3251 26 3764 27 3500
8524 0.81811739134824202 0.074953518413889669 1.4888189708459847 41 42 47 0.12952840218014461 24 3338 25 3250 26 3765 27 3501
8523 0.81940421265700514 0.067606763498252467 1.4980549546239081 187 203 203 0.34281883409051866 24 3334 25 3248 27 3496
8522 0.81178316049507249 0.063929286053767354 1.6428518062364781 55 59 68 0.1981512809368543 24 2971 25 3244 4 2648 3 3223
8521 0.80582610165913648 0.053795696840539142 1.6678941151048829 36 42 43 0.61923803230491514 24 2308 25 3240 26 3512 27 3493 4 2636
8520 0.82064812379164909 0.053174317393831286 1.4938193571551674 175 193 198 0.16492920917554482 24 2953 25 3237 26 3114 27 3114
8519 0.81556756205886438 0.049027022782272243 1.4622614723170668 38 30 41 0.060247225236570494 24 3322 25 3236 26 3508 27 3488
8518 0.81761781621692176 0.047122986956688984 1.6232000252985537 228 231 236 0.40095196720766957 24 2950 25 3233 27 3773 3 3214
8517 0.81761907276906043 0.047046601653807155 1.6231672320168276 228 231 236 0.35717854173147362 24 2951 25 3232 26 3755 27 3772 3 3213
8516 0.79549213852974976 0.039095262822781043 1.3955556516317325 237 253 254 0.10268935981948567 24 3575 25 3230 26 3501
8515 0.81540136106961436 0.031728210901522114 1.6369300243305185 36 41 46 0.34687810182985207 24 2265 25 3224 27 3478 3 2506
8514 0.81712987129847225 0.025760408289734128 1.6273113468524321 229 234 240 0.21114107781681435 24 2929 25 3222 26 3494 27 3473 3 3202
8513 0.82542576899369757 0.013306817574853093 1.5358991752274709 50 50 58 0.26439833759575909 24 3300 25 3217 26 3487 27 3466
8512 0.82043280108291938 -0.012739571286455198 1.492331561076415 215 229 232 0.12905246013566524 24 3280 25 3202 26 3479
8511 0.82061923081787547 -0.015854447947794212 1.6004884697709234 216 226 227 0.30320536782174295 24 3281 25 3199 26 3478 27 3456 3 2454
8510 0.78226252456273981 -0.11889182759608234 1.4474259265807436 229 246 250 0.10552107263944517 24 3241 25 3171 26 3430
8509 0.78704332885827633 -0.12251753406623718 1.6149015690334245 196 217 234 0.21673043137076728 24 2829 25 3170 26 3429 27 3420
8508 0.78054714598204078 -0.13806283483669066 1.5990726369301438 41 49 56 0.39161835195883365 24 2820 25 3162 26 3423
8507 0.65378366904158502 -0.40844864538527725 1.5379342160852831 241 246 240 0.33887301950361459 24 2732 25 3108 26 3668 27 3348
8506 0.65378366904158502 -0.40844864538527725 1.5379342160852831 241 246 240 0.33887301950361459 24 2733 25 3107 26 3667 27 3349
8505 0.71155695086515169 0.58134863887925492 1.534458540108635 237 249 255 0.093060244427071365 24 2665 25 3084 26 2787 27 2800
8499 0.72847175583500701 0.24755284723012164 1.4163736893144083 128 129 110 0.11897780520061567 24 3077 25 3014 26 3232
8498 0.80207410154711001 0.12636684468969342 1.446221366742328 184 194 190 0.29611956558763874 24 3015 25 2957 26 3170 27 2513
8497 0.80742814794394324 0.12572490321182711 1.6120119643794872 41 46 50 0.308787074930436 24 3016 25 2954 27 3168 3 2632
8496 0.81735592008354307 0.096911707439090139 1.5801224974263561 189 198 203 0.10818824935329503 24 2992 25 2938 26 3538
8495 0.81539006309413209 0.084891293306469023 1.6093278125034969 17 26 27 0.13836525193178958 24 2350 25 2930 26 3142 27 3138 3 2570
8494 0.80654433936651981 0.082852594199442228 1.4383378356821237 23 31 34 0.17693032134404996 24 2982 25 2928 26 3139 27 2459
8493 0.82096364007546385 0.082054265972550486 1.5632613485759359 198 203 200 0.14004727761565133 24 2983 25 2927 26 3529 27 3137
8492 0.82166085471000472 0.08198433384733067 1.5538085152144907 49 51 53 0.27717232544331161 24 2346 25 2926 27 3134
8491 0.80905286855293768 0.069305352876407988 1.6521778702000869 227 236 241 0.26332384195013969 24 2334 25 2920 26 3522 4 1204 3 2556
8490 0.81306235462599685 0.047037232786492363 1.6440159765886571 221 224 233 0.24836612115132659 24 2298 25 2908 26 3112 27 3111 4 1128 3 2527
8489 0.8248317183498538 0.040567842108797297 1.5732917152791535 54 56 65 0.4061902064512587 24 2943 25 2904 26 3503 27 3101
8488 0.8131599841387791 0.036396235301146343 1.6459491103284045 245 249 254 0.12952364361833651 24 2278 25 2898 26 3101 27 3092 3 2516
8487 0.82175009263911269 0.036562356504256807 1.5959012927666685 33 37 40 0.27345208964040846 24 2275 25 2897 26 3100
8486 0.82511187174339073 -0.00033162932479551644 1.5293910105226667 53 62 67 0.11053108498880876 24 2206 25 2876 26 3056 27 3067
8485 0.82437343125463847 -0.0065156907649275685 1.5840969025552796 217 222 229 0.18568696505259638 24 2197 25 2867 26 3047 27 2346
8483 0.8164131955335493 -0.029337837431489679 1.6258346189187134 218 233 233 0.18513679929753202 24 2166 25 2852 26 3022 27 3046
8482 0.79651874576831294 -0.053818550348563934 1.41358149798343 208 226 230 0.36768615095465595 24 2132 25 2836 26 2247 27 694
8481 0.81137295765449835 -0.071902287210884736 1.4973764711271069 31 34 43 0.34102638536769025 24 2115 25 2832 26 2228 27 2258
8480 0.79435732842558338 -0.071560600427983401 1.4238870832967272 227 244 254 0.28008762862558295 24 2110 25 2830 26 2988 23 2379 27 2260
8479 0.81059394063342449 -0.081331209975805771 1.5267551768066612 194 213 217 0.11305239092351738 24 2854 25 2825 26 2979 27 3009
8478 0.80805265976320484 -0.09172093080749448 1.5713999627526762 29 40 46 0.1320532906732067 24 2848 25 2818 26 3449 27 2997
8477 0.77215303991613149 -0.12872139508589078 1.4322626584571478 226 242 254 0.23557024027733728 24 2819 25 2796 26 2947
8476 0.73400292770740561 -0.16588641175599378 1.3514457096350634 254 254 244 0.13710602541998035 24 2011 25 2772 26 2928 27 2183
8475 0.74065689422595982 -0.27266519759716862 1.3292179163384104 216 228 216 0.19300827828095646 24 1966 25 2740 26 2894
8474 0.77217080222278678 -0.49803774048112104 1.3202971329954609 203 205 200 0.07996404552265407 24 2702 25 2696 26 2818
8472 0.71059735226004372 0.56310329453278807 1.5301108152807619 236 229 203 0.24232952857022261 24 2660 25 2665 26 2780 27 2798
8470 0.71048924474476671 0.55551732811319587 1.5436703547857042 44 35 33 0.17251372216974775 24 2653 25 2662 26 2771 27 1838
8469 0.71049502904924089 0.55418636095333362 1.5796931858880399 93 93 75 0.23766559803969461 24 2644 25 2661 27 3299 26 2773
8468 0.71226986058368513 0.55315721430739284 1.549634807317003 224 220 219 0.30815520836189669 24 1709 25 2660 26 2769 27 1831
8467 0.71226986058368513 0.55315721430739284 1.549634807317003 224 220 219 0.30815520836189669 24 1708 25 2659 26 2768 27 1832
8466 0.70554725817456887 0.54768004364722245 1.6195726052009387 95 87 63 0.33529121114014721 24 1672 25 2655 27 1828
8465 0.40373110640614235 0.34846082726375738 1.4682343874722954 57 66 61 1.3245396132716762 24 2576 25 2602 26 2674
8464 0.74889829284174492 0.21607678774216779 1.4017928911500019 112 120 96 0.12449223262219088 24 2524 25 2540 26 1474
8463 0.76537973802563108 0.20093821475596052 1.4219124400479535 153 159 136 0.29347162094231266 24 2502 25 2517 26 2585
8462 0.78256495930432157 0.2008794797867641 1.4963059245433394 91 96 93 0.1730608228759602 24 2500 25 2511 26 2586 27 1493
8461 0.78099241994051694 0.19547653865629916 1.4599054219920564 188 192 187 0.28042904580551614 24 1349 25 2500 26 2578 27 1481
8460 0.76402295970699863 0.18581866285170157 1.3939252371335704 224 236 216 0.074963155551829655 24 2478 25 2492 26 2562
8459 0.73692975905154179 0.18542557197732148 1.3451424765499402 204 209 212 0.27428327567879179 24 2475 25 2489 26 1388
8458 0.79511170228511208 0.18381894197037607 1.5461016406804899 208 204 184 0.14064848682591619 24 1323 25 2488 26 2564 27 2602
8457 0.7954024719264644 0.18211466527879691 1.5380756220268776 68 61 51 0.16706540397856756 24 1318 25 2487 26 2556 27 2598
8456 0.78946031344160683 0.17896709478892053 1.4584472135878537 73 73 66 0.30840279814378868 24 3038 25 2483 26 2553
8455 0.7761747747698553 0.17844647867711755 1.4153061539380336 220 231 217 0.11596350052245209 24 2470 25 2482 26 2552
8454 0.79845619338587537 0.17208616894646286 1.5272397794118566 186 182 183 0.2040384143354915 24 1299 25 2470 26 2547
8453 0.8038607513606556 0.16153227633710593 1.5658126565938468 192 195 188 0.12140068258438164 24 1261 25 2456 26 2534 27 1408
8452 0.80651725691600262 0.14981012752549056 1.5350550517327219 208 213 217 0.27970410958435971 24 2443 25 2448 26 2520
8450 0.7766565719725641 0.14335257438207902 1.3878166296661407 191 203 205 0.085856209163862829 19 1350 25 2444 20 1683
8449 0.80616343496101295 0.1373288550169153 1.4773095217400325 194 213 211 0.12277655267222207 24 2425 25 2440 26 2499 27 2530
8448 0.8103524468011909 0.13155534909059877 1.5797237105889514 211 216 220 0.19936992597522979 24 2414 25 2433 26 3176 27 3170
8447 0.81577977336210272 0.11792911677749185 1.5679765104435606 42 47 51 0.30263231989368727 24 2397 25 2418 26 2470 27 2503
8446 0.81647195361572811 0.10939447814930756 1.5205441760932772 44 55 59 0.1104714589450517 24 2384 25 2409 26 2457 27 2492
8445 0.80273335402824442 0.096388000873573146 1.6638336165309024 241 244 252 0.16141246744847532 24 1079 25 2394 26 3149 27 2480 3 1203
8444 0.81994151225708511 0.086957285510212895 1.573983923829422 200 210 211 0.13946932928434963 24 1032 25 2383 27 2469 26 1114
8443 0.82109472291281416 0.083389727883691603 1.5455136898281614 157 164 167 0.26997773553147841 24 1013 25 2378 26 2431 27 2464
8442 0.79836513466910697 0.076038715680360483 1.4100944852307133 18 26 28 0.10735410454668569 24 2978 25 2365 26 3135 27 2452
8441 0.82213939099856859 0.069258853605726034 1.5201393063196829 20 24 35 0.13897861883638898 24 2328 25 2358 26 2417 27 2441
8440 0.82018333088684381 0.066713652908208868 1.5863762483462869 227 231 234 0.38147601568433998 24 2326 25 2354 3 2550
8439 0.81363989819274429 0.059334586541514987 1.4560485541213408 2 7 13 0.2309941170027856 24 921 25 2338 26 1020 27 1067 23 1087
8438 0.79517315210137385 0.056685159988441751 1.3969459425393187 1 5 6 0.092233271536696249 24 914 25 2337 26 1012
8437 0.81953540490521881 0.05124629678255415 1.4831622208020574 76 103 106 0.22745976670313053 24 897 25 2329 26 992
8436 0.82203756476518508 0.047312774463174882 1.50683460480123 197 217 216 0.23828169940449759 24 889 25 2326 27 1037
8435 0.82430850290343483 0.04583310482855027 1.5299189883802229 154 173 175 0.13003908267801564 24 2290 25 2324 26 2387 27 2417
8433 0.82505205041948815 0.039014168066088747 1.5553515840180185 173 191 199 0.13906999457750949 24 869 25 2318 27 2409
8432 0.81608134709727154 0.039722623726418139 1.4633004153283466 216 224 233 0.10671232538156018 24 2273 25 2317 26 2375 27 2408
8431 0.81608134709727154 0.039722623726418139 1.4633004153283466 216 224 233 0.10671232538156018 24 2274 25 2316 26 2376 27 2407
8430 0.81131650709192504 0.032507871888559914 1.6549542673383686 11 19 12 0.1232767648395825 24 859 25 2304 26 2360 27 988 3 1012
8429 0.82436783198953245 0.028523545832810544 1.5345550594970001 200 212 215 0.16684652574518136 24 2257 25 2294 27 2395
8427 0.82605532271656124 0.0053586636042656554 1.536007787567496 209 212 219 0.25118615685770196 24 2224 25 2262 26 2313 27 2366
8426 0.82054833753732004 -0.0051456209923127928 1.4859301948913122 16 30 37 0.055206793939263747 24 2193 25 2254 26 2303 27 2349
8425 0.82520473867911925 -0.011892472865306709 1.5316375499494739 36 39 45 0.17849070446035381 24 710 25 2243 26 2298 27 2339
8424 0.82520473867911925 -0.011892472865306709 1.5316375499494739 36 39 45 0.17849070446035381 24 709 25 2242 26 2299 27 2338
8422 0.81216800619703489 -0.02315387773658379 1.6454176563086471 231 246 247 0.21269788641371118 24 2175 25 2228 26 3028 27 3051 3 2446
8420 0.813897718414612 -0.06129183028653689 1.4969585728224823 239 248 255 0.11179575114826339 24 584 25 2202 26 2238 27 671
8419 0.81445110117558095 -0.064991029908653589 1.5916066471630279 23 37 45 0.082491724886236115 24 2125 25 2200 26 2992
8418 0.81540824316062854 -0.066709980181845319 1.5679298925790763 6 19 31 0.040488511755497503 24 2123 25 2198 26 2232
8417 0.80116476084287114 -0.067116073478268673 1.4405182219153905 91 110 116 0.13476109391743632 24 576 25 2196 26 635
8416 0.78113758570698988 -0.067938854891798489 1.3839223135253234 155 176 177 0.33405813426335285 24 2118 25 2195 26 2230 27 653
8415 0.80488019184262494 -0.10222628885785996 1.5289786484290411 193 211 215 0.081852929159680246 24 524 25 2169 26 570
8414 0.73661044194167091 -0.15556042388669375 1.3358780414103848 250 248 228 0.28727810581346669 24 2023 25 2119 26 2932
8413 0.74069651762526778 -0.2802178805921387 1.3311701568498693 93 105 108 0.22427149283839037 24 273 25 2063 26 316 27 365
8412 0.58015799176705041 -0.32793147718011595 1.5654859096119751 105 124 174 0.18802372835592904 25 2049 26 2053 24 251 27 2076
8411 0.58859960209127205 -0.34131690523154312 1.5117902249666024 191 206 240 0.15068852965678628 24 1937 25 2038 26 2046
8410 0.70582192188293891 -0.36724163474444704 1.3385448675849094 87 99 85 0.078269970427937541 24 1909 25 2016 26 2026
8409 0.65189383119378985 -0.40310095304617483 1.546140612951693 4 4 17 0.064682473354799638 24 180 25 2011 27 232
8408 0.7700973255987188 -0.50841996149560031 1.3139772672426648 197 201 195 0.19646839359945625 24 1851 25 1954 26 1947
8404 0.51149920355128997 0.61274310880357441 1.4881186673221674 202 170 113 1.4127828375498501 2 2068 25 1902
8401 0.64309633810249955 0.58537495268688122 1.3776020596148828 254 251 241 0.077317024764222836 19 1872 20 2429 25 1877
8400 0.70292577445734516 0.57806180097907345 1.4887590346801214 229 215 209 0.47452606903535377 24 2664 25 1861
8398 0.70500162756312301 0.56057808233972284 1.6154195494390111 217 206 194 0.35027199104561779 24 1713 25 1835 26 1800 3 1852
8397 0.68686753071357842 0.54332814214175806 1.4361255095786831 37 31 10 0.32950124675011083 24 2639 25 1810 26 1748
8394 0.54903618006973265 0.5563535546785886 1.7486935484953967 80 74 57 1.4641093556390881 24 1643 25 1758
8392 0.33309929824123719 0.52580944937784102 1.3099051637526542 0 0 0 0.27906943434782822 19 2650 23 2836 20 3585
8389 0.51431135949203999 0.35157731684878774 1.5742785495861251 122 135 144 0.30255977541532264 24 1543 25 1649
8388 0.74954831538048972 0.22269796843397557 1.4169970028205021 131 134 115 0.11532504016239441 24 1419 25 1544 26 1498
8387 0.75348941239419098 0.22169889355214495 1.4268628060988904 201 206 184 0.1033008270544034 24 1414 25 1542 26 1494
8386 0.77581463259846295 0.18215638908087892 1.4210479619662677 147 162 143 0.18834752334760815 24 1321 25 1435 26 1381
8385 0.79857502124225688 0.17251240525595049 1.5574028491874521 208 206 191 0.075917658712671587 24 1301 25 1406 27 1433
8384 0.79949637049452105 0.17294544710394871 1.5368483714128955 73 67 64 0.21172534165666607 24 1303 25 1404 26 1363 27 1432
8383 0.76253870651935729 0.17241802487317487 1.377001460431289 211 225 210 0.14971482967295519 24 1297 25 1401 26 1357
8382 0.79598299554626972 0.17131597573928709 1.486172795441761 59 60 44 0.04311434909126044 24 1294 25 1399 26 1359
8381 0.80053719399830015 0.16899550693862886 1.519784229436818 50 49 47 0.13526453243193329 24 1286 25 1396 26 2544 27 2579
8380 0.79206640733732958 0.16740412732907223 1.451701421845617 26 29 22 0.07365150522057469 24 1280 25 1391 26 1344
8379 0.79206640733732958 0.16740412732907223 1.451701421845617 26 29 22 0.07365150522057469 24 1281 25 1390 26 1345
8378 0.63591640157247353 0.16983023258838942 1.2201610922178447 231 238 196 0.30326801478712068 24 1287 25 1388 20 1806
8377 0.79458877157528218 0.16497301483952873 1.4605393001489921 32 33 32 0.15769664881491907 24 1273 25 1386 26 1334
8376 0.74337043458011776 0.16257672296198622 1.3359515179375223 225 232 238 0.071734125309233968 23 1378 25 1371 26 1325
8375 0.79217969306483516 0.16003321425659722 1.4455930328368014 20 21 13 0.10927675650839486 24 1254 25 1364 26 1326 27 1401
8374 0.79217969306483516 0.16003321425659722 1.4455930328368014 20 21 13 0.10927675650839486 24 1255 25 1363 26 1327 27 1400
8373 0.80205623169261708 0.15386178978323073 1.4907876716896888 219 233 234 0.050739311306351363 24 1242 25 1353 26 1311
8372 0.76340377030736706 0.14897968875711945 1.3618463528057621 67 78 82 0.10905998140283679 23 1342 25 1342 26 1288
8371 0.80487985021721653 0.14878979651534541 1.4892637941410809 34 52 54 0.098805374406202864 24 1227 25 1340 26 1296
8370 0.79250149347307952 0.14785259125320874 1.4329590778026524 17 21 17 0.13342217588198815 24 1222 25 1339 26 1292 27 1366
8369 0.79250149347307952 0.14785259125320874 1.4329590778026524 17 21 17 0.13342217588198815 24 1221 25 1338 26 1293 27 1367
8368 0.80827307993781594 0.12962630933314387 1.4784379360873383 26 44 44 0.066661909896343852 24 2406 25 1284 26 2488 27 2519
8367 0.76169698184157364 0.12137834947309151 1.3456155873209805 8 11 14 0.069917234757018665 24 1139 25 1257 26 1213
8366 0.8177899773235654 0.10972539559810884 1.5498249065110716 242 249 255 0.08562208418192363 24 1112 25 1228 26 1191 27 1249
8365 0.81219202283667935 0.10068031660091599 1.4741827147406346 197 205 208 0.11727783912700591 24 1084 25 1206 26 1169
8364 0.81219202283667935 0.10068031660091599 1.4741827147406346 197 205 208 0.11727783912700591 24 1083 25 1205 26 1168
8363 0.77631136088916042 0.099875408256364845 1.3648563231492041 30 32 29 0.10239670896799552 23 1225 25 1202 26 1160
8362 0.81641913213741601 0.096683121463140689 1.4980851163925988 238 253 253 0.13309015882882017 24 1071 25 1191 26 2446 27 1200
8361 0.74164661904763229 0.097306634009079296 1.3044710990889632 20 24 33 0.085588178274642532 19 1247 25 1189 26 1146
8360 0.8185533692916882 0.09604425705996654 1.5637545652891434 26 25 29 0.043006141956110681 24 1072 25 1185 27 1206
8359 0.81518997811978489 0.095112557407998344 1.604164633670401 20 24 28 0.19092287582389808 24 1074 25 1182 26 1152
8358 0.77766060906470735 0.09540138914165075 1.3655670999198706 207 210 204 0.10671272182327045 24 1053 25 1180 26 1143
8357 0.77766060906470735 0.09540138914165075 1.3655670999198706 207 210 204 0.10671272182327045 24 1054 25 1179 26 1144
8356 0.74540456142839351 0.095122916888409612 1.3094391514614958 215 219 225 0.13983734053491448 24 1049 25 1178 26 1133
8355 0.73390058165025707 0.096197825649697824 1.293097642003358 229 237 245 0.34124930254698249 20 1537 25 1177 19 1245
8354 0.8095684301165319 0.09234585325396677 1.4567465873391581 234 248 248 0.12392882132003985 24 1044 25 1162 26 1134
8353 0.81701305418442027 0.089324743416504385 1.4943843527556211 236 254 253 0.11974692924923158 24 1036 25 1151 27 1175
8352 0.74174654749741797 0.087672804379126806 1.301167782190344 9 11 16 0.089925348752202525 23 1189 24 1023 25 1142
8351 0.80833963578603019 0.085414034646041526 1.4442329132109484 204 218 219 0.27483882777960683 24 1022 25 1136 26 1106 23 1170 27 1157
8350 0.81737925496851926 0.083870816955573385 1.49141861347812 10 26 26 0.11598696227124314 24 1012 25 1123 26 1102 27 1152
8349 0.82165230528039879 0.081936033571276504 1.5736955804195976 34 44 43 0.17609151957908803 24 1010 25 1114 26 1099 27 1150
8347 0.81884422605493357 0.079905743238752824 1.4950277500415843 236 246 247 0.18753500432320688 24 998 25 1109 26 1089 27 1139
8346 0.81867492565985489 0.080000382746876542 1.4952579185313692 236 246 247 0.10825688417167069 24 999 25 1108 27 1140
8345 0.79384738639049413 0.076771877411756922 1.3975330143302114 238 245 238 0.13234312186865607 24 982 25 1095 26 1077 27 1117 20 1420
8344 0.82121662782940141 0.072615738376916733 1.5876584247931131 5 9 12 0.075637166404766393 24 972 25 1085 26 1065 27 1110
8343 0.79321731805008466 0.071146678079669026 1.3948739912029067 37 40 36 0.055496315275378592 24 959 25 1070 26 1058
8342 0.79321731805008466 0.071146678079669026 1.3948739912029067 37 40 36 0.055496315275378592 24 958 25 1069 26 1057
8341 0.82366474128034206 0.058359867736761349 1.5856233332336598 248 252 253 0.23326256763904477 24 2315 25 1028 27 1070 26 1021
8340 0.82248252381670739 0.057906993558513135 1.5122108001990868 218 232 232 0.25639599570195465 24 918 25 1027 26 1019
8339 0.76471311531937691 0.052488450831626635 1.3324759869343861 51 65 54 0.14634608536699986 20 1324 24 896 25 1000
8338 0.74819722961098645 0.049830565073247048 1.3048153947884895 50 66 64 0.104090445700647 19 1051 23 1053 25 991
8337 0.76946123700964997 0.046842537264381569 1.3396054548530063 33 35 34 0.11791444900461995 23 1049 25 983 26 971
8336 0.79015961125127609 0.044854382326113031 1.3813276494700322 108 122 122 0.15519141049208746 24 878 25 969 26 969 27 1024 22 1049
8335 0.7779763997194602 0.043590208225398323 1.3560358787974753 249 251 236 0.17856231402404207 23 1039 25 959 26 963
8334 0.8231221456851765 0.042234832878300418 1.4991632365507173 172 191 195 0.25145157100639287 24 876 25 955 27 1019
8333 0.73831999121238956 0.0348129432617761 1.2883203217589005 218 236 234 0.23771523628447991 24 852 25 925 26 926 20 1260
8332 0.82137606639646377 0.024974144261598621 1.4925735499135098 33 33 43 0.090125471668990903 24 827 25 883 26 900 27 954
8331 0.82500670323426517 0.019499774706072493 1.5453826141501772 28 32 43 0.16218715477724915 24 813 25 871 26 882 27 938
8330 0.79932191358526361 0.012554213630376702 1.4013652629449618 95 124 119 0.20880805351015252 24 783 25 858 27 908 20 1162
8329 0.81252585636270391 -0.006837324446993206 1.6358929623286669 238 249 243 0.17652383710871122 24 734 25 798 27 852
8328 0.80959391655378954 -0.0093030409087476538 1.4368298613357979 85 104 111 0.066107464898881432 24 712 25 786 26 793
8327 0.82092571087140798 -0.010585862873518837 1.4851583106764012 214 225 231 0.15901703626599448 24 713 25 784 27 839
8326 0.81722430396934664 -0.021978709944710541 1.6200877398001889 58 74 74 0.13138907992546309 24 690 25 743 26 747 27 794
8325 0.81639029719750522 -0.043557961304404397 1.6013209477257835 241 248 250 0.19987655581757702 24 634 25 704 26 2263 27 732 3 769
8324 0.81657236501801322 -0.04320803047003284 1.4925130989902298 234 244 250 0.32384257819777951 24 627 25 703 26 692 27 735
8323 0.81330004364058983 -0.05579786432862513 1.4842520795845255 23 41 45 0.052579537933243159 24 596 25 673 26 658
8322 0.80044832849073477 -0.084278739635496785 1.4594625214821106 2 5 15 0.13451865120035411 24 551 25 624 26 608 27 621
8321 0.74225607154223039 -0.085708688343128697 1.3203002761023215 230 232 222 0.58485073575675217 17 953 24 547 25 614
8320 0.79800932882223952 -0.091858429311546197 1.459346502964558 6 8 18 0.31244328747576483 24 540 25 590 26 588
8319 0.79707033373902425 -0.096576884611213998 1.4595785242578228 241 252 254 0.26565040362299136 24 533 25 579 26 579 27 597
8318 0.80265561365066485 -0.1049416323475002 1.545337953139281 17 18 31 0.13158467796704446 24 521 25 564 26 564 27 578
8317 0.78131837201847298 -0.1200975015054747 1.4492409496087468 236 253 255 0.14044393426559701 24 478 25 530 26 536
8316 0.77561256190098005 -0.14885102160030686 1.5048491569050844 214 225 230 0.28828938747664018 24 416 25 467 26 477
8315 0.74080733452175807 -0.1721066290993207 1.4374710181916095 147 158 150 0.15994923608748174 24 380 25 425 26 442
8314 0.73300760104620377 -0.18165847887261369 1.3332487955383845 192 197 197 0.073642777510669041 24 363 25 413 26 424
8313 0.73769370953241031 -0.25120638151131786 1.3379274362619262 218 232 216 0.19613191673664013 24 297 25 321 26 344
8312 0.73971333762328784 -0.2914427460984374 1.3436402290618694 72 79 67 0.79173692132380513 24 255 25 280 26 302
8311 0.58078267381596482 -0.31265518874995968 1.5162750605266326 121 134 166 0.036638114743617806 24 267 25 279 26 2060
8310 0.60519894819591857 -0.37050603840651047 1.5239450899970379 98 105 131 0.4824643740040479 24 1925 25 209 26 2032
8309 0.60679541578459306 -0.37017177222894421 1.5232563323085972 98 105 131 0.54252091607576503 25 208 26 2031 27 2049 24 1924
8303 0.76359238533831386 -0.4573496239331149 1.3222969194001017 65 70 66 0.30860837210511766 24 66 25 79 26 115
8302 0.7661421056793094 -0.46111181694749476 1.3237191247242011 162 165 163 0.10813186322408801 24 63 25 72 26 110
8300 0.1719939858530985 0.58140823327995628 1.587560086382408 0 0 0 0.26986162504078248 1 5003 2 4279
8297 0.15830420715483501 0.56987329922201413 1.4075419657555779 0 0 0 0.040680760470212227 1 2304 12 2042
8296 0.40695726206244642 0.52832834701803189 1.2898551115796426 0 0 0 0.34646708913156565 1 4103 2 2976
8295 0.29322453663572878 0.53110183228985286 1.7004122097240129 219 213 165 0.66162420157155433 10 2256 7 3076
8293 0.3001108084146783 0.58781047175169165 1.4934692342335227 0 0 0 0.75536097663597479 10 1558 12 2001
8291 0.14852680424202397 0.52153893044142963 1.577960651009175 81 74 61 0.08748061597078613 10 1466 11 1558 9 1346 12 1889
8289 0.18956281645883249 0.5117073593264273 1.701758181546744 141 139 109 0.11077654540937944 10 1422 9 1318
8288 0.51789400556168286 0.33785239451058224 1.5827340496103379 0 0 0 0.63424706626728256 18 3599 21 4008 23 2782 19 2590
8287 0.067774920144907255 0.13473739645840702 1.3580212715497715 210 214 198 0.43161497080045536 15 3096 14 3515 2 3381 1 3957 11 3148 10 2530 12 3698 10 2770 16 2562 9 2386 13 3011
8286 0.024400253213069489 0.10484986174971207 1.4551347689801735 180 181 152 0.37057351291974377 14 4087 2 3879 15 4053 11 3359 9 2851 12 3883
8284 0.056575467016961582 0.15103197010943242 1.3912829896317223 192 200 180 0.35913993103961328 14 2865 2 1496 1 3236 13 1635 9 980 12 2746
8283 0.029993567658202023 0.11622783676610021 1.4406080195877053 111 105 90 0.29305751080161896 10 1001 14 1472 11 1132 15 1620 9 862 12 1319
8282 0.019923745244735603 0.1118572067257641 1.4764054695758393 137 126 107 1.0134383938809706 1 3182 10 993 9 847 12 1297 10 2044 2 1409 14 2820 15 1601 8 880 11 2250 12 1302
8281 0.42743812101736206 0.39991041588008835 1.7079594384951 208 208 208 1.7984877401496648 10 3384 9 3290
8278 0.077505671871515733 0.16769961994761867 1.7371524617048468 163 174 168 1.10773722399144 10 3330 9 3265 8 3123
8277 0.036863303136538725 -0.037526957864173351 1.6556071099712255 196 197 217 1.3325903778149482 10 3355 9 3258 8 3092
8276 0.094103947019930412 -0.11516449430020757 1.7433740191468134 203 209 219 0.55406081420024755 9 3254 8 3113 7 3894
8271 0.06729698537781062 0.23427729382189308 1.6066528155646949 175 190 171 0.34742078927757575 10 3249 9 3163 8 3031
8270 0.055700669676003789 0.12633337524748198 1.7243272715932652 74 68 68 0.50339115638831566 10 3239 9 3159 8 3069 7 3835
8269 0.047479845309126807 -0.021113398590757455 1.7273775004688905 165 164 133 0.55754463855979741 10 3221 9 3149 8 3014 7 3710
8267 0.15730070842621305 0.15212501374011417 1.8415106824783931 211 218 184 0.29556055764492439 10 3083 9 3106 8 3021 7 3786
8266 0.15670079050044436 0.15198607446977266 1.8416979353990164 211 218 184 0.29167177857803589 9 3105 8 3020 7 3785 6 4405 10 3082 5 3459
8263 0.092300908621536101 0.16050241984265234 1.7669850411761203 104 103 83 0.28587697570907 10 2789 9 3014 8 2745 7 3501 6 3896 5 2700
8262 0.042062143839477206 0.15372364013460799 1.6710820714671326 168 173 179 0.43862857398828486 10 3084 9 3012 8 2881
8261 0.017187247146805123 0.12492368075330956 1.6062251153292502 60 62 61 0.50502738826951343 10 3077 9 3004 8 2733 7 3290
8260 0.071559880752751867 0.11462800651683119 1.7584981384950442 184 194 186 0.17418974943248808 10 3073 9 2998 8 2875 7 3638 6 4091 5 2969
8259 0.071500172081273558 0.11451290607874731 1.758520284121647 184 194 186 0.11542828947631238 10 3074 9 2997 8 2876 7 3639
8258 0.028305173800023637 0.058699555881086322 1.6843202916791651 65 64 69 0.14929060561847443 10 3063 9 2985 8 2861 7 3629
8257 0.016859634792653018 0.018656547342940578 1.6520373626855716 122 113 98 0.5983807301129036 11 3326 9 2980 7 3248 12 3267
8256 0.043642492160930808 0.007234047843070023 1.7245542486685339 81 78 77 0.27685228432665254 11 3325 9 2975 8 2849 7 3614 6 4065
8255 0.057491320277594224 0.0047198247982294453 1.7509266378176951 176 190 176 0.11302981878198318 10 2927 9 2974 8 2846 7 3613
8254 0.0047466244112215035 -0.0025873153033051507 1.5463155207938046 165 175 183 0.37113560386941291 10 3052 9 2970 8 2844
8253 0.034821969517562751 -0.017397999944446688 1.6988524235918669 179 169 143 0.26124449090020074 10 3051 9 2966 8 2838 7 3448
8250 0.11135174679915279 0.19812013036427698 1.7630609839755569 133 119 119 0.47118219249135485 10 2970 9 2879 8 2752 7 3515
8249 0.17634170532719562 0.16522986352485522 1.8521146962613704 111 101 76 0.16108885837314577 9 2871 8 2747 7 3503 6 4107 10 2788 5 2985
8248 0.1258448174045961 0.15690488451275014 1.8094145597737084 223 225 204 0.11430944442034201 10 2783 9 2868 8 2883 7 3645
8247 0.024463407968804019 0.14690066302369673 1.5986461012830815 60 56 56 0.2163127082781979 10 2962 9 2860 8 2737
8246 0.11534304463309522 0.094906427343477789 1.8244791668227225 210 208 162 0.38309893082570673 10 2758 9 2847 7 3479 6 4088
8245 0.057082485821295444 0.020011208069296588 1.751724608236549 79 84 78 0.13178418945277223 10 2931 9 2836 8 2709 6 3854
8244 0.072876993825277764 -0.16016467239976726 1.6808731903935223 194 204 198 0.70007764024049735 10 2895 12 3990 9 2797
8240 0.045047907622173103 0.19000567576746388 1.4764091627230278 129 128 113 0.40973229104934522 10 2806 9 2692 8 2352
8239 0.049526958436235759 0.1643414800150379 1.6812682100718808 200 202 206 0.15031306105748671 10 2794 9 2686 8 2580 7 3303
8238 0.026243218664401446 0.15665332631972193 1.574840624829269 45 45 44 0.17442649917582018 11 3158 9 2682 8 2331
8237 0.026883765846254553 0.12909423557861127 1.6333561650561794 169 172 163 0.3105116610619259 10 2767 9 2673 8 2572 7 3293
8236 0.11749686882101457 0.073832774504828586 1.8285609078491183 182 181 178 0.29117811105644303 10 2748 9 2649 7 3273 6 3871 5 2962
8232 0.10474260502662734 -0.10930210973007362 1.7729447646880139 159 152 128 0.1646593246879314 10 2707 9 2606 8 2503 6 3408
8231 0.082314054458491992 0.24178775064025457 1.6519904165851702 188 193 186 0.98129360524727394 10 2162 9 2464 8 1985 7 3021
8230 0.059289851762885558 0.22653372563705265 1.5373650621243027 124 121 118 0.45382311022329086 12 3403 8 2374 9 2460
8229 0.039986624657512231 0.19248136243773931 1.5412722322756653 185 189 173 0.20059253916865236 11 2872 9 2432 8 1934
8228 0.039818029733896136 0.19244180555753326 1.5412700089824296 185 189 173 0.17206990872582692 11 2871 9 2431 8 1933 7 1414
8227 0.11850284820535081 0.16293728871509541 1.7974933406777451 118 111 90 0.061737168117932006 10 2545 9 2411 8 2339
8226 0.027240400970900091 0.15761588033184229 1.6018359368810093 197 192 195 0.098885258606006068 10 2093 9 2408 8 1900
8225 0.11380404089745443 0.15824653066445224 1.7912234410293435 205 200 182 0.093369086422207884 10 2543 9 2407 8 2336
8224 0.09285565740184476 0.14488124066351452 1.775121274600199 206 201 179 0.29273446869791758 10 2072 9 2397 8 2575 7 3300 6 3551 5 2688
8223 0.15890235546214501 0.12951764874625313 1.8528355358661019 114 109 81 0.2375864449279583 9 2383 8 2317 7 2948 6 3541 10 2055 5 2683
8222 0.11997927933435142 0.11170849295041907 1.8215955492352063 200 205 156 0.74898163396181805 10 2037 9 2374 5 2672 6 3881
8221 0.028518367603217742 0.082832888138628546 1.6774278052995482 166 176 178 0.16032578375308712 10 2503 9 2366 8 2298
8220 0.11972918003723654 0.082963804885112374 1.8290241587606655 38 24 23 0.17403096698297402 10 2006 9 2365 8 2297 7 2923 6 3521 5 2662
8219 0.092160015797994377 0.075080132014864645 1.7991294239277933 217 226 227 0.18876762648230905 10 1992 9 2359 8 1808 7 2914 6 2897 5 1037
8218 0.053559721359370968 0.074161898642943952 1.7392232690303524 38 39 34 0.089500202934336151 10 1994 9 2357 8 2290 7 2913
8217 0.16602666900012425 0.064453829751993041 1.8716275613304658 51 40 38 0.19667193604190253 9 2351 8 2282 7 2907 6 3513 10 2488 4 2652 5 2656
8216 0.12269522623256593 -0.0038680684916061201 1.8338360094971231 110 132 111 0.17854005375536983 10 1924 9 2314 8 2248 7 2849 6 3469 5 2621
8215 0.12796981462654913 -0.017993462063066675 1.8384789567764626 179 201 180 0.42264956335375575 10 1915 9 2309 8 2528
8213 0.38284272461344115 0.60980087920770043 1.5791933756485865 203 199 213 0.38341325563493278 1 3578 9 2158
8211 0.43921149360690392 0.60662082966846109 1.5738338635026372 146 130 107 0.91059630036640093 2 2022 9 2150
8204 0.19967431557905382 0.50352414423620084 1.5474339858026536 140 152 196 0.013066728253267299 10 2246 9 2097
8203 0.066629058842551395 0.21703225760240083 1.6466609277274913 186 185 191 0.28752637313261198 10 1250 9 2023 8 1139 7 1505
8202 0.064427773970761881 0.21187464651523569 1.6509031400383407 19 18 19 0.1188937732160244 10 2144 9 2018 8 1962 7 2477
8201 0.064427773970761881 0.21187464651523569 1.6509031400383407 19 18 19 0.1188937732160244 10 2143 9 2017 8 1961 7 2478
8200 0.060032670660150923 0.20653268399456293 1.6437702895014401 30 31 26 0.14747052571355926 10 2134 9 2005 8 1950 7 1471
8199 0.042501934456474599 0.18009564279800505 1.6287708368177323 33 33 33 0.073437006490299467 10 1169 9 1988 8 1924
8198 0.10696199266043425 0.17531138900001597 1.7760411869454797 174 165 152 0.20597265794998854 10 2109 9 1979 8 1915 7 2444 6 3014 5 1244
8197 0.10956361469259042 0.16821383092767489 1.7824372585693444 185 177 157 0.067347373625473161 10 2097 9 1976 6 1698
8196 0.086619201765735315 0.15496585409039951 1.7616321787428413 164 168 151 0.28663149606007315 10 2083 9 1969 8 1899
8195 0.048842933559736061 0.15122627748293366 1.6908020923020277 37 38 39 0.12748412354671676 10 2078 9 1967 8 1896
8194 0.047147340444896532 0.14567549697274973 1.6880019514058691 206 210 213 0.30078706732517169 11 2287 9 1961 8 1888 7 2409
8193 0.08691885917021111 0.14027223163556532 1.7702239763693994 123 123 106 0.139230960503789 10 2069 9 1954 8 2324 7 2957 6 2967 5 2225
8192 0.084087242568578011 0.13374241727441391 1.7707037360503215 188 190 179 0.16687618725361819 10 1039 9 1943 8 1880 7 2395
8191 0.049066419771182007 0.12887100546672478 1.7104191112000733 163 161 162 0.17319776353338992 10 2059 9 1936 8 1874
8190 0.041436720301028233 0.12629291310446261 1.6924391067532361 176 185 182 0.15722530971931545 10 1031 9 1931 8 933 7 1221 6 1566
8189 0.050323396872545736 0.11806246118269104 1.716539696735653 51 50 48 0.10942425591630202 10 1004 9 1918 8 1860 7 2369
8188 0.047196533663895895 0.10492581948760413 1.7161960531949032 84 87 86 0.18032051335427848 10 966 9 1899 8 1845 7 2354
8187 0.055938708993402843 0.10223166706302453 1.7341408937569369 174 176 172 0.22970478102395536 10 959 9 1895 8 1841 7 2349 6 1473
8186 0.044309673501506767 0.097768222890990394 1.7115584601341296 179 182 185 0.21382130965784643 10 947 11 1071 9 1893 8 1838 7 1133 6 1453
8185 0.070717380725951351 0.088175886947823814 1.764466693370057 42 44 43 0.39706363690667457 11 2220 9 1886 8 1822 7 2334
8184 0.058452586730254837 0.087678976974198394 1.7463247572576888 188 193 191 0.15813951498564618 10 918 9 1885 8 1820 6 1434
8183 0.025263056259293596 0.079074084301175865 1.6692894434544752 14 17 23 0.13249772333103807 11 2212 9 1878 8 1814
8182 0.0603651670430689 0.077433986358909565 1.7504035637450837 19 19 17 0.12843996955853457 10 1999 9 1876 8 2293
8181 0.025716445716534295 0.076583393907204311 1.6753014317030848 168 173 179 0.13173668583702716 10 1996 11 1004 9 1874
8180 0.028937900938528799 0.068325021251421911 1.6860350187736188 182 192 191 0.1130294262626181 10 1988 9 1868 8 1804
8179 0.13119522603602485 0.066477348635773079 1.8424694942993725 195 186 179 0.22814494000235591 10 1986 9 1866 8 2285 7 2910 4 1198 5 2158 6 2888
8178 0.029549780337801208 0.062413830756239581 1.6895064490699929 17 19 16 0.028355986014173207 10 1981 9 1862 8 1796
8177 0.081189162666630621 0.060098412028447151 1.787464328274305 112 130 123 0.10432877268236439 10 839 9 1853 8 1793 7 2295 6 2872 5 990
8176 0.024833230271511506 0.056786247103964814 1.6783092261391637 31 31 34 0.051313908482199848 10 1976 9 1849 8 1790
8175 0.060067154058105317 0.041783466090897461 1.7574330179995623 177 195 181 0.26041675243004209 11 903 9 1838 8 1775 7 2259 6 2843 5 2120
8174 0.03900478066187852 0.040889952453038607 1.7142123544774899 185 196 193 0.046458472763312247 10 787 9 1837 8 1772 6 1228
8173 0.0034765604617626178 0.024097134341956254 1.5502083039150978 208 215 181 0.35541836718481989 12 978 9 1818 8 648
8172 0.036938372038674422 0.01928874516395156 1.711285241182825 182 185 178 0.057687675117274836 10 729 9 1816 8 627 7 848
8171 0.12837035010893988 -0.0001037534981688566 1.8397700633898413 169 188 167 0.11419311869396212 10 687 9 1799 8 1732 5 2087
8170 0.05338179581093986 -0.0028156643495683645 1.7442200945555242 170 181 172 0.21542017808944167 10 1925 9 1795 8 1729 7 2196 6 1085
8169 0.096392442590108166 -0.015455075508743608 1.8047130442219483 176 196 179 0.35927051096005508 10 1916 9 1784 8 2240 6 3458 7 3225 5 2616
8168 0.034590012635674156 -0.065924560799632909 1.6655809661188636 189 199 215 1.1247083027682043 12 2483 9 1760 8 1682
8166 0.06909728109681168 -0.088539463785235639 1.7124975668770106 215 221 233 0.759865830013426 10 525 9 1742 8 2210
8165 0.026209818603647111 -0.090542692058819346 1.5471234232022011 191 181 185 0.3211094681561244 11 590 12 2463 9 1740 8 1667
8164 0.11864717737527403 -0.091494610373003937 1.7995768217182511 161 159 136 0.2811670484605972 10 529 9 1739 8 1664
8163 0.10276427485965406 -0.095853204579059201 1.7787351953270523 190 185 153 0.26930848926108947 10 520 9 1738 6 782
8162 0.12738256414464949 -0.13118873309590701 1.7824979595496935 147 144 102 0.11306840862895576 10 1858 9 1718 8 388 7 2079 6 707
8161 0.10147652666192199 -0.38501608801366133 1.6915005526285267 139 140 127 0.2184809739852431 10 1746 9 1580 8 1528
8155 0.19616821565771198 0.55797265100377236 1.4013745658278989 221 221 245 0.01825449817681541 10 1534 9 1410
8153 0.27309365704737898 0.5480814362740607 1.7933637129400126 210 208 199 0.51745844793313578 10 1488 9 1404 4 1926
8152 0.27309365704737898 0.5480814362740607 1.7933637129400126 210 208 199 0.51745844793313578 10 1489 9 1403 4 1927
8150 0.14796157934144943 0.5328446270872611 1.5363283090835258 86 81 75 0.1375062734865925 10 1502 11 1590 9 1388
8145 0.30266337660538711 0.54369654855622895 1.4965179825429906 106 103 72 0.20517110700076652 12 1909 9 1342
8142 0.18135503681604589 0.25441813840224747 1.7749259014215875 122 125 102 0.40044199143394965 9 1184 8 1177 7 1570 10 1300
8141 0.071163991590751319 0.23162394348246926 1.6197309998550298 131 134 127 0.29508928876777302 10 1272 9 1169 8 1151
8140 0.090621004190102328 0.19861618300220404 1.7283357141843267 129 133 118 0.32253833792300912 10 1215 9 1113 8 1105 7 1456 6 1798
8139 0.039410368604098397 0.19170501670643492 1.5542515028810842 204 207 198 0.27941620025977293 11 1303 9 1097 8 1079
8138 0.076708747813187012 0.18391272832470482 1.7210948962605783 34 38 41 0.12774359440869096 10 1174 9 1076 8 1060 7 2451 6 1738
8137 0.030823673392794904 0.17183636491084034 1.580255412656514 23 21 22 0.095521903747925352 12 1520 9 1046 8 1029
8136 0.093315308001671288 0.16853584663164062 1.7609997860401152 195 203 186 0.13577676834086702 10 1128 9 1035 8 1023
8135 0.049552934571468504 0.1404766525411095 1.7039863448282093 39 41 42 0.11131035081714019 10 1064 9 953 8 962 7 1266
8134 0.028074004978833032 0.1398790225498088 1.6310608224529297 68 68 66 0.23434982727136358 10 1066 12 1405 9 948 8 1883
8133 0.030525557205831964 0.1386035637274714 1.6446748634947499 182 186 179 0.11746300289588522 10 1055 9 942 8 954
8132 0.12063205912141994 0.14060482652900039 1.8114401211115412 105 94 72 0.27934861577778036 10 1053 9 940 8 965 6 1630 5 1175
8131 0.053352847639143969 0.12112527216887944 1.7213487077535452 182 181 179 0.17886646327614686 10 1010 9 894 8 916 7 1208
8130 0.022843512497969769 0.12086815504999483 1.6350082973999758 26 31 24 0.087434396536351558 10 1016 9 885 8 910
8129 0.059105427322694172 0.1167424524101696 1.3626985212824909 177 184 182 0.51609353981342099 10 2518 11 2257 15 3080 9 856
8128 0.062611882536150826 0.11033873958014707 1.7445451429804157 210 215 211 0.14201306770191999 10 986 9 846 8 883 7 1170
8127 0.017389340925874758 0.10698229315908861 1.6209152788085124 187 196 196 0.081572192351528253 10 980 9 842 8 873
8125 0.042380633657794278 0.10336048698518766 1.7062576173166955 21 25 28 0.059523695741881807 10 962 9 830 8 860 7 1142
8124 0.063079570689140399 0.097553527354940217 1.7501087245799676 24 24 25 0.071991767234869483 10 946 9 812 8 851
8123 0.031090494465539242 0.093191139518157828 1.6812795122036834 173 182 179 0.12328425163745486 10 939 9 802 8 1829
8122 0.027435413653351955 0.092480765259837103 1.6716625880606393 165 173 176 0.1131704876576764 10 935 9 800 8 838
8121 0.079017868480000655 0.09375435998466515 1.7770220335241262 46 55 53 0.15115625186553433 10 934 9 799 8 839 7 1122 6 1452
8120 0.093770500100478299 0.09373568627202046 1.7972051936993063 216 219 212 0.1543129097382698 10 933 9 797 8 1831 7 1121
8119 0.037771258735468181 0.090297536434660389 1.7000156301756253 25 27 27 0.31719356245886871 10 924 9 790 8 834 7 1110 12 1213
8118 0.01809990910023666 0.089443283670240722 1.6385297292798089 7 14 20 0.12156059177785447 10 922 12 1217 9 785 7 1099
8117 0.051053850110993025 0.084979108071567958 1.7315053281415493 217 226 227 0.051805786992731744 10 911 9 769 8 814
8116 0.044320556305342498 0.082169041760924599 1.7192369659729339 34 38 39 0.067174712672580128 10 902 9 761 7 1078 6 1409
8115 0.0078452623663975256 0.080609575756874288 1.5580086655640497 186 178 165 0.10217529253005586 11 1021 9 758 8 806
8114 0.046923383030125228 0.079960419178430803 1.724153799288852 181 186 190 0.072829536657659441 10 894 9 756 8 805
8113 0.0073443859791000373 0.076620333589021511 1.5549772236019361 82 81 79 0.1210618004200263 12 1176 9 750 8 792
8112 0.072557821625893484 0.075571475202251576 1.7723334485003732 41 41 42 0.12533563285960367 10 884 9 749 8 791 7 1052 6 1396
8111 0.055761363232627141 0.073691144075553203 1.7464559977100926 193 194 189 0.11067717308902303 10 880 9 743 8 786
8110 0.077817699632432902 0.073311059665082348 1.781360483771703 183 188 186 0.44821679742234621 10 879 9 742 8 782 7 2316
8109 0.01933237715017035 0.071901046474137115 1.654911024095967 30 31 30 0.19813769911615969 11 989 9 737 8 778 7 1038
8108 0.0069445911668858228 0.0706187198037206 1.5417283442276197 154 167 168 0.52010260636033434 12 1141 9 735 8 767
8107 0.093891327542272932 0.069768440654720681 1.8030861174803172 130 142 122 0.26663859278969243 10 867 9 726 8 768 7 1034 6 1382 5 1027
8106 0.0070334106910137978 0.06780284531391742 1.5641567678281001 87 85 94 0.052407783508974466 12 1131 9 722 8 764
8105 0.072165027568635687 0.065139064523295431 1.773443392215841 10 16 6 0.21904753223435894 10 852 9 716 8 1800 7 2310 6 1357 5 1012
8104 0.01248926162963751 0.063769864421163655 1.6285353552119834 83 89 85 0.13071262190313401 10 857 9 713 8 758
8103 0.049651840601725075 0.044219141970642258 1.7375370982748934 54 57 57 0.10225994541412016 10 800 9 651 8 697 7 955
8102 0.026002545334498459 0.037010437297068856 1.6844489474982753 70 71 75 0.1565949691760665 11 897 9 629 7 926
8101 0.060919213059127897 0.023653966460163871 1.7590660404066345 186 191 187 0.11546817062266593 10 744 9 597 8 644 7 874
8100 0.040941789888575518 0.016918196413031602 1.71931784821362 180 187 185 0.16634508804059522 10 724 9 583 8 621
8099 0.012355956201638096 0.0017914711775555317 1.4724408309807109 165 176 146 0.34017218693690388 12 895 9 554 8 592
8098 0.016199015461312732 -0.0026298016563258112 1.6443669924942848 208 203 175 0.30141882544009735 12 890 9 540 8 584
8097 0.054457726430302909 -0.0084456239674279843 1.7446159753313428 57 59 48 0.07059833279348017 10 665 9 533 8 570
8096 0.035448713536547528 -0.014798193805801416 1.7035818414854977 178 170 149 0.29853200606300351 10 645 9 520 8 551
8095 0.020095625070736433 -0.01633712788242251 1.6544551698513283 101 93 105 0.16145686898908032 12 854 9 514 7 725
8094 0.065863474367347338 -0.022262311345047497 1.7621505669377169 155 144 108 0.20176077638416715 10 631 9 504 8 534
8093 0.0081508450670047996 -0.028466995243489016 1.589296114138554 166 174 193 0.49470540551869224 11 2105 12 819 9 492 8 1711
8092 0.036043768406362427 -0.0427187773479085 1.6883502731012447 229 219 225 0.24287925011648598 11 686 9 470 7 660 12 786 6 2712
8091 0.086883951089108513 -0.054998686248847954 1.7783650196568335 163 150 118 0.15226628027828212 10 576 9 457 8 479
8090 0.060368502812551426 -0.055471019185825886 1.7357682653135711 128 107 75 0.24163688975277356 10 573 9 453 8 1690 6 888 11 2082
8089 0.096161401963265211 -0.078002856211843982 1.7816943191547434 126 118 93 0.15647811085547805 10 540 9 424 8 447 6 824 7 2113 5 622
8088 0.1330823670594096 -0.11046144076499129 1.8051121846469427 154 149 111 0.32021604053873631 10 506 9 388 8 1657 7 2790 6 750
8087 0.067066351666573765 -0.27222028478152793 1.6687983874773791 36 42 32 0.14235597953975945 10 319 9 239 8 272
8086 0.067174536076390318 -0.29271465749927733 1.6831950377495939 54 61 53 0.25486501720065996 11 335 9 223 8 233
8085 0.077484259765503383 -0.3151503015694655 1.6902260994425058 189 196 178 0.091310467520751379 10 268 9 210 8 211
8083 0.16189828594898284 -0.40250130726965316 1.5923552822168963 28 39 36 0.18431919768102578 10 180 9 138 8 128
8082 0.15650405182881508 -0.40546471279225432 1.5683029889750564 80 82 59 0.071603259354183518 10 173 9 126
8080 0.07790022135099528 -0.42298793933386852 1.68065875407946 71 69 47 0.10357293301512331 10 133 9 88 8 82
8079 0.080041895414849448 -0.43108174485077477 1.7055815198772513 151 154 138 0.12588241505551478 10 129 9 80
8078 0.02821619561085283 -0.4667440660748241 1.6813902259064044 37 38 33 0.12080597642812048 10 85 11 81 9 58
